# .PCD v0.7 - Point Cloud Data file format
VERSION 0.7
FIELDS x y z
SIZE 4 4 4
TYPE F F F
COUNT 1 1 1
WIDTH 1814
HEIGHT 1
VIEWPOINT 0 0 0 1 0 0 0
POINTS 1814
DATA ascii
366.70142 -720.65881 1628
370.63428 -722.87213 1633
373.44092 -722.87213 1633
375.55634 -721.54419 1630
376.73297 -718.4455 1623
379.52243 -718.4455 1623
382.31186 -718.4455 1623
385.10132 -718.4455 1623
387.17377 -717.11749 1620
389.95804 -717.11749 1620
392.74234 -717.11749 1620
394.79416 -715.78949 1617
397.5733 -715.78949 1617
401.09518 -717.11749 1620
403.87949 -717.11749 1620
407.41684 -718.4455 1623
410.2063 -718.4455 1623
412.99573 -718.4455 1623
415.78519 -718.4455 1623
419.09042 -719.33081 1625
421.8833 -719.33081 1625
424.67618 -719.33081 1625
429.73239 -718.4455 1623
432.52185 -718.4455 1623
435.31128 -718.4455 1623
437.29092 -717.11749 1620
440.07523 -717.11749 1620
442.0394 -715.78949 1617
445.6438 -717.11749 1620
449.25851 -718.4455 1623
451.21237 -717.11749 1620
453.99664 -717.11749 1620
455.93503 -715.78949 1617
458.71414 -715.78949 1617
470.56393 -712.69086 1610
473.33102 -712.69086 1610
475.21094 -711.36285 1607
477.9729 -711.36285 1607
481.63232 -712.69086 1610
485.00113 -713.57617 1612
520.3717 -712.69086 1610
523.78864 -713.57617 1612
526.5592 -713.57617 1612
528.67303 -712.69086 1610
614.45312 -712.69086 1610
617.22028 -712.69086 1610
619.98737 -712.69086 1610
622.75446 -712.69086 1610
707.41589 -706.0509 1595
710.15723 -706.0509 1595
712.89856 -706.0509 1595
801.2381 -699.41095 1580
-769.14703 -756.22308 1715
-766.19952 -756.22308 1715
-763.25195 -756.22308 1715
-759.41772 -755.34125 1713
-756.47363 -755.34125 1713
-747.9563 -752.69556 1707
-745.02246 -752.69556 1707
-740.78448 -751.37274 1704
-736.55676 -750.04987 1701
-732.33942 -748.72705 1698
-729.42108 -748.72705 1698
-726.50275 -748.72705 1698
-724.86279 -750.04987 1701
-720.66602 -748.72705 1698
-717.74768 -748.72705 1698
-714.82935 -748.72705 1698
-710.6532 -747.40424 1695
-706.90491 -746.52234 1693
-702.74768 -745.19946 1690
-699.84308 -745.19946 1690
-693.22699 -741.23096 1681
-690.33789 -741.23096 1681
-687.44873 -741.23096 1681
-684.55963 -741.23096 1681
-681.67047 -741.23096 1681
-678.78137 -741.23096 1681
-675.08801 -740.34906 1679
-672.20233 -740.34906 1679
-669.31665 -740.34906 1679
-665.24023 -739.02625 1676
-663.54529 -740.34906 1679
-659.47919 -739.02625 1676
-656.59863 -739.02625 1676
-654.88818 -740.34906 1679
-652.0025 -740.34906 1679
-649.11682 -740.34906 1679
-646.23114 -740.34906 1679
-644.11182 -741.23096 1681
-642.367 -742.55377 1684
-640.61194 -743.87665 1687
-637.71252 -743.87665 1687
-635.94196 -745.19946 1690
-631.91364 -743.87665 1687
-630.13275 -745.19946 1690
-626.11475 -743.87665 1687
-624.32355 -745.19946 1690
-620.31586 -743.87665 1687
-616.31848 -742.55377 1684
-612.33142 -741.23096 1681
-609.44226 -741.23096 1681
-606.55316 -741.23096 1681
-602.9458 -740.34906 1679
-600.06006 -740.34906 1679
-597.17438 -740.34906 1679
-593.22687 -739.02625 1676
-589.28961 -737.70337 1673
-587.46582 -739.02625 1676
-583.53888 -737.70337 1673
-580.66345 -737.70337 1673
-578.82422 -739.02625 1676
-575.94366 -739.02625 1676
-573.06311 -739.02625 1676
-570.18262 -739.02625 1676
-568.3175 -740.34906 1679
-565.43182 -740.34906 1679
-562.54608 -740.34906 1679
-559.6604 -740.34906 1679
-556.77472 -740.34906 1679
-553.88904 -740.34906 1679
-550.01886 -739.02625 1676
-548.11768 -740.34906 1679
-545.23199 -740.34906 1679
-542.34625 -740.34906 1679
-538.4967 -739.02625 1676
-535.61621 -739.02625 1676
-533.68921 -740.34906 1679
-530.80353 -740.34906 1679
-527.91785 -740.34906 1679
-525.0321 -740.34906 1679
-521.2135 -739.02625 1676
-518.33301 -739.02625 1676
-515.45245 -739.02625 1676
-511.65439 -737.70337 1673
-509.69138 -739.02625 1676
-505.90363 -737.70337 1673
-503.02826 -737.70337 1673
-500.15289 -737.70337 1673
-497.2775 -737.70337 1673
-494.40213 -737.70337 1673
-492.40817 -739.02625 1676
-489.52765 -739.02625 1676
-484.90488 -736.38055 1670
-482.03467 -736.38055 1670
-479.16443 -736.38055 1670
-477.14984 -737.70337 1673
-475.12497 -739.02625 1676
-472.24442 -739.02625 1676
-469.36389 -739.02625 1676
-467.31833 -740.34906 1679
-464.43262 -740.34906 1679
-461.54694 -740.34906 1679
-457.84177 -739.02625 1676
-455.77557 -740.34906 1679
-452.88986 -740.34906 1679
-449.20013 -739.02625 1676
-445.52069 -737.70337 1673
-441.85156 -736.38055 1670
-438.98135 -736.38055 1670
-436.11111 -736.38055 1670
-434.01917 -737.70337 1673
-431.1438 -737.70337 1673
-429.03638 -739.02625 1676
-426.91864 -740.34906 1679
-424.03296 -740.34906 1679
-421.64896 -741.23096 1681
-419.50714 -742.55377 1684
-416.61288 -742.55377 1684
-413.7186 -742.55377 1684
-410.09244 -741.23096 1681
-406.71881 -740.34906 1679
-403.11157 -739.02625 1676
-398.79825 -736.38055 1670
-395.45386 -735.49866 1668
-392.58707 -735.49866 1668
-389.72028 -735.49866 1668
-387.31735 -736.38055 1670
-383.98669 -735.49866 1668
-381.11993 -735.49866 1668
-376.89252 -732.85297 1662
-374.71121 -734.17578 1665
-372.51956 -735.49866 1668
-369.65277 -735.49866 1668
-367.2258 -736.38055 1670
-364.35556 -736.38055 1670
-361.48535 -736.38055 1670
-358.61511 -736.38055 1670
-355.7449 -736.38055 1670
-353.50858 -737.70337 1673
-350.00446 -736.38055 1670
-346.71851 -735.49866 1668
-343.23328 -734.17578 1665
-340.37164 -734.17578 1665
-337.51001 -734.17578 1665
-334.64841 -734.17578 1665
-331.78677 -734.17578 1665
-328.92514 -734.17578 1665
-326.651 -735.49866 1668
-323.20187 -734.17578 1665
-320.34024 -734.17578 1665
-317.47861 -734.17578 1665
-315.18387 -735.49866 1668
-312.31708 -735.49866 1668
-309.45029 -735.49866 1668
-306.95111 -736.38055 1670
-303.71674 -735.49866 1668
-300.84995 -735.49866 1668
-297.98315 -735.49866 1668
-295.11636 -735.49866 1668
-291.72397 -734.17578 1665
-288.34186 -732.85297 1662
-285.48538 -732.85297 1662
-282.28882 -731.97107 1660
-278.93076 -730.64819 1657
-276.08289 -730.64819 1657
-272.74033 -729.32544 1654
-264.69138 -730.64819 1657
-262.31757 -731.97107 1660
-259.46451 -731.97107 1660
-256.92065 -732.85297 1662
-254.06419 -732.85297 1662
-251.66116 -734.17578 1665
-248.79953 -734.17578 1665
-245.9379 -734.17578 1665
-243.07628 -734.17578 1665
-239.78183 -732.85297 1662
-236.92535 -732.85297 1662
-234.06888 -732.85297 1662
-231.2124 -732.85297 1662
-228.08113 -731.97107 1660
-225.22812 -731.97107 1660
-222.64299 -732.85297 1662
-219.52203 -731.97107 1660
-216.93005 -732.85297 1662
-214.07358 -732.85297 1662
-211.2171 -732.85297 1662
-208.10989 -731.97107 1660
-204.88591 -730.64819 1657
-202.03802 -730.64819 1657
-198.82951 -729.32544 1654
-196.34227 -730.64819 1657
-193.49438 -730.64819 1657
-190.64651 -730.64819 1657
-188.13866 -731.97107 1660
-185.28561 -731.97107 1660
-182.65237 -732.85297 1662
-179.7959 -732.85297 1662
-176.72652 -731.97107 1660
-173.87347 -731.97107 1660
-170.71136 -730.64819 1657
-167.86348 -730.64819 1657
-165.01559 -730.64819 1657
-161.87411 -729.32544 1654
-159.0314 -729.32544 1654
-155.99982 -728.44348 1652
-153.16054 -728.44348 1652
-150.32124 -728.44348 1652
-147.66051 -729.32544 1654
-144.64267 -728.44348 1652
-141.80339 -728.44348 1652
-139.13234 -729.32544 1654
-136.5368 -730.64819 1657
-133.68893 -730.64819 1657
-130.84105 -730.64819 1657
-127.99317 -730.64819 1657
-124.91872 -729.32544 1654
-122.076 -729.32544 1654
-119.23327 -729.32544 1654
-116.39055 -729.32544 1654
-113.54782 -729.32544 1654
-102.05338 -728.44348 1652
-99.214096 -728.44348 1652
-96.374809 -728.44348 1652
-93.365669 -727.12067 1649
-90.366829 -725.79785 1646
-87.537857 -725.79785 1646
-84.708885 -725.79785 1646
-81.780418 -724.91595 1644
-79.050941 -725.79785 1646
-76.221962 -725.79785 1646
-73.39299 -725.79785 1646
-70.564018 -725.79785 1646
-67.858498 -727.12067 1649
-65.024368 -727.12067 1649
-62.190243 -727.12067 1649
-59.356113 -727.12067 1649
-53.785522 -728.44348 1652
-50.946236 -728.44348 1652
-48.106953 -728.44348 1652
-45.267666 -728.44348 1652
-42.428379 -728.44348 1652
-39.5172 -727.12067 1649
-36.683071 -727.12067 1649
-33.848942 -727.12067 1649
-31.014812 -727.12067 1649
-28.180683 -727.12067 1649
-25.346552 -727.12067 1649
-22.471468 -725.79785 1646
-19.618628 -724.91595 1644
-16.793091 -724.91595 1644
-13.967554 -724.91595 1644
-11.155573 -725.79785 1646
-8.3164816 -724.91595 1644
-5.4909458 -724.91595 1644
-2.6654098 -724.91595 1644
0.16012636 -724.91595 1644
2.9856625 -724.91595 1644
5.8005943 -723.59308 1641
8.636735 -724.91595 1644
11.441355 -723.59308 1641
14.261734 -723.59308 1641
17.082115 -723.59308 1641
19.902494 -723.59308 1641
22.722874 -723.59308 1641
25.589951 -724.91595 1644
28.311783 -722.27026 1638
31.127007 -722.27026 1638
34.004398 -723.59308 1641
36.892097 -724.91595 1644
39.717632 -724.91595 1644
42.543171 -724.91595 1644
45.368706 -724.91595 1644
48.194244 -724.91595 1644
51.019779 -724.91595 1644
53.91082 -725.79785 1646
56.739792 -725.79785 1646
59.568768 -725.79785 1646
62.321922 -724.91595 1644
65.147461 -724.91595 1644
67.973 -724.91595 1644
70.798531 -724.91595 1644
73.624069 -724.91595 1644
76.449608 -724.91595 1644
79.130478 -723.59308 1641
81.801041 -722.27026 1638
84.616264 -722.27026 1638
87.431488 -722.27026 1638
90.13652 -721.38837 1636
92.948303 -721.38837 1636
95.584488 -720.06549 1633
98.391121 -720.06549 1633
101.01184 -718.74268 1630
103.68594 -717.86078 1628
106.48398 -717.86078 1628
109.28201 -717.86078 1628
112.08006 -717.86078 1628
115.01922 -718.74268 1630
117.67612 -717.86078 1628
120.47416 -717.86078 1628
123.27219 -717.86078 1628
126.22511 -718.74268 1630
129.0266 -718.74268 1630
131.66631 -717.86078 1628
134.46434 -717.86078 1628
137.26237 -717.86078 1628
140.06041 -717.86078 1628
142.85846 -717.86078 1628
145.83543 -718.74268 1630
148.63692 -718.74268 1630
151.43839 -718.74268 1630
154.0506 -717.86078 1628
157.04134 -718.74268 1630
160.13699 -720.06549 1633
163.24297 -721.38837 1636
166.05475 -721.38837 1636
168.86653 -721.38837 1636
171.67833 -721.38837 1636
174.70343 -722.27026 1638
177.51866 -722.27026 1638
180.33388 -722.27026 1638
183.14911 -722.27026 1638
185.73726 -721.38837 1636
188.54904 -721.38837 1636
191.59477 -722.27026 1638
194.17262 -721.38837 1636
196.6232 -720.06549 1633
199.06345 -718.74268 1630
202.23645 -720.06549 1633
205.04309 -720.06549 1633
207.84972 -720.06549 1633
210.65636 -720.06549 1633
213.85512 -721.38837 1636
216.66692 -721.38837 1636
219.4787 -721.38837 1636
221.88287 -720.06549 1633
224.6895 -720.06549 1633
227.49614 -720.06549 1633
229.87967 -718.74268 1630
232.68114 -718.74268 1630
235.48262 -718.74268 1630
238.28409 -718.74268 1630
241.08557 -718.74268 1630
244.33592 -720.06549 1633
247.14255 -720.06549 1633
249.94917 -720.06549 1633
252.75581 -720.06549 1633
256.03195 -721.38837 1636
258.84372 -721.38837 1636
261.65552 -721.38837 1636
264.46729 -721.38837 1636
266.78897 -720.06549 1633
269.59558 -720.06549 1633
271.90179 -718.74268 1630
274.36621 -717.86078 1628
276.6535 -716.53796 1625
279.10245 -715.65601 1623
281.89191 -715.65601 1623
284.68134 -715.65601 1623
287.47079 -715.65601 1623
289.72369 -714.33325 1620
292.508 -714.33325 1620
295.83911 -715.65601 1623
298.99655 -716.53796 1625
301.78943 -716.53796 1625
304.58231 -716.53796 1625
307.37518 -716.53796 1625
309.21371 -714.33325 1620
311.99799 -714.33325 1620
315.3652 -715.65601 1623
318.15466 -715.65601 1623
320.94409 -715.65601 1623
335.30399 -716.53796 1625
338.09686 -716.53796 1625
341.5191 -717.86078 1628
343.68265 -716.53796 1625
346.47552 -716.53796 1625
349.2684 -716.53796 1625
352.71124 -717.86078 1628
355.50928 -717.86078 1628
357.64703 -716.53796 1625
359.99631 -715.65601 1623
363.23282 -716.53796 1625
366.0257 -716.53796 1625
369.49948 -717.86078 1628
372.75485 -718.74268 1630
375.09555 -717.86078 1628
376.73297 -715.65601 1623
378.82089 -714.33325 1620
381.60519 -714.33325 1620
384.38947 -714.33325 1620
387.17377 -714.33325 1620
389.95804 -714.33325 1620
392.74234 -714.33325 1620
394.79416 -713.01038 1617
397.5733 -713.01038 1617
401.09518 -714.33325 1620
403.87949 -714.33325 1620
407.41684 -715.65601 1623
410.2063 -715.65601 1623
412.99573 -715.65601 1623
415.78519 -715.65601 1623
419.09042 -716.53796 1625
421.8833 -716.53796 1625
424.1535 -715.65601 1623
426.94296 -715.65601 1623
429.73239 -715.65601 1623
431.72235 -714.33325 1620
434.50665 -714.33325 1620
437.29092 -714.33325 1620
439.26025 -713.01038 1617
442.0394 -713.01038 1617
444.81851 -713.01038 1617
448.42807 -714.33325 1620
450.3768 -713.01038 1617
453.15588 -713.01038 1617
455.93503 -713.01038 1617
458.71414 -713.01038 1617
460.92252 -712.12848 1615
462.83682 -710.80566 1612
470.56393 -709.92377 1610
473.33102 -709.92377 1610
475.21094 -708.60089 1607
477.9729 -708.60089 1607
480.73483 -708.60089 1607
485.00113 -710.80566 1612
487.77167 -710.80566 1612
490.54221 -710.80566 1612
508.10931 -712.12848 1615
509.93597 -710.80566 1612
512.70648 -710.80566 1612
515.47705 -710.80566 1612
518.24756 -710.80566 1612
521.01813 -710.80566 1612
523.78864 -710.80566 1612
526.5592 -710.80566 1612
528.67303 -709.92377 1610
531.44012 -709.92377 1610
547.02148 -708.60089 1607
549.09924 -707.71906 1605
552.54541 -708.60089 1607
555.30731 -708.60089 1607
565.65027 -707.71906 1605
569.11707 -708.60089 1607
580.16486 -708.60089 1607
597.85052 -709.92377 1610
608.91895 -709.92377 1610
611.68604 -709.92377 1610
613.30817 -708.60089 1607
616.07013 -708.60089 1607
619.98737 -709.92377 1610
622.75446 -709.92377 1610
626.29858 -710.80566 1612
629.06909 -710.80566 1612
631.05573 -709.92377 1610
632.64178 -708.60089 1607
635.40375 -708.60089 1607
638.16565 -708.60089 1607
640.92761 -708.60089 1607
643.68958 -708.60089 1607
646.45148 -708.60089 1607
649.21344 -708.60089 1607
651.9754 -708.60089 1607
654.73737 -708.60089 1607
686.39777 -709.92377 1610
695.14069 -701.98669 1592
699.19196 -703.30957 1595
701.93329 -703.30957 1595
703.34918 -701.98669 1592
705.1983 -701.1048 1590
708.82153 -701.98669 1592
711.55768 -701.98669 1592
715.63989 -703.30957 1595
742.43481 -697.57721 1582
746.56683 -698.90009 1585
798.52252 -696.69537 1580
801.2381 -696.69537 1580
802.42712 -695.3725 1577
-766.90466 -751.07941 1710
-765.30597 -752.39716 1713
-762.36188 -752.39716 1713
-759.41772 -752.39716 1713
-756.47363 -752.39716 1713
-750.89014 -749.76172 1707
-747.9563 -749.76172 1707
-743.71313 -748.44409 1704
-739.48029 -747.1264 1701
-735.25775 -745.80865 1698
-731.04553 -744.49103 1695
-728.13232 -744.49103 1695
-725.21912 -744.49103 1695
-723.58435 -745.80865 1698
-719.39276 -744.49103 1695
-715.63416 -743.61255 1693
-712.72443 -743.61255 1693
-709.8147 -743.61255 1693
-706.90491 -743.61255 1693
-702.74768 -742.29486 1690
-698.60077 -740.97723 1687
-694.46411 -739.65948 1684
-689.51648 -737.46338 1679
-687.44873 -738.3418 1681
-684.55963 -738.3418 1681
-681.67047 -738.3418 1681
-677.97375 -737.46338 1679
-675.08801 -737.46338 1679
-672.20233 -737.46338 1679
-669.31665 -737.46338 1679
-665.24023 -736.14569 1676
-663.54529 -737.46338 1679
-659.47919 -736.14569 1676
-657.77393 -737.46338 1679
-654.88818 -737.46338 1679
-652.0025 -737.46338 1679
-649.11682 -737.46338 1679
-646.23114 -737.46338 1679
-643.34546 -737.46338 1679
-641.22272 -738.3418 1681
-638.33356 -738.3418 1681
-637.71252 -740.97723 1687
-634.81311 -740.97723 1687
-631.91364 -740.97723 1687
-629.01422 -740.97723 1687
-626.11475 -740.97723 1687
-623.21533 -740.97723 1687
-620.31586 -740.97723 1687
-616.31848 -739.65948 1684
-612.33142 -738.3418 1681
-609.44226 -738.3418 1681
-605.83148 -737.46338 1679
-601.86847 -736.14569 1676
-598.98792 -736.14569 1676
-596.10742 -736.14569 1676
-592.16498 -734.828 1673
-588.23291 -733.51031 1670
-585.36267 -733.51031 1670
-581.79486 -732.63184 1668
-579.62219 -733.51031 1670
-576.75201 -733.51031 1670
-574.91272 -734.828 1673
-572.03735 -734.828 1673
-569.16199 -734.828 1673
-566.28656 -734.828 1673
-564.42151 -736.14569 1676
-561.54102 -736.14569 1676
-558.66046 -736.14569 1676
-555.77991 -736.14569 1676
-551.90967 -734.828 1673
-549.0343 -734.828 1673
-547.13831 -736.14569 1676
-544.25781 -736.14569 1676
-540.4082 -734.828 1673
-537.53278 -734.828 1673
-534.65741 -734.828 1673
-532.73566 -736.14569 1676
-529.8551 -736.14569 1676
-526.97461 -736.14569 1676
-523.15588 -734.828 1673
-519.34753 -733.51031 1670
-516.47729 -733.51031 1670
-513.60712 -733.51031 1670
-510.73688 -733.51031 1670
-507.86667 -733.51031 1670
-504.39166 -732.63184 1668
-502.12622 -733.51031 1670
-499.25598 -733.51031 1670
-496.38577 -733.51031 1670
-493.51553 -733.51031 1670
-490.64532 -733.51031 1670
-487.19095 -732.63184 1668
-483.45312 -731.31415 1665
-480.59149 -731.31415 1665
-477.72986 -731.31415 1665
-474.86823 -731.31415 1665
-473.42398 -733.51031 1670
-470.55377 -733.51031 1670
-467.68353 -733.51031 1670
-464.81332 -733.51031 1670
-462.77295 -734.828 1673
-459.89758 -734.828 1673
-457.02222 -734.828 1673
-454.14682 -734.828 1673
-451.27145 -734.828 1673
-448.39606 -734.828 1673
-444.7218 -733.51031 1670
-441.85156 -733.51031 1670
-438.98135 -733.51031 1670
-436.11111 -733.51031 1670
-433.24091 -733.51031 1670
-430.3707 -733.51031 1670
-429.03638 -736.14569 1676
-426.15585 -736.14569 1676
-424.03296 -737.46338 1679
-421.64896 -738.3418 1681
-419.50714 -739.65948 1684
-415.8707 -738.3418 1681
-412.98157 -738.3418 1681
-409.60452 -737.46338 1679
-405.9921 -736.14569 1676
-401.66846 -733.51031 1670
-398.79825 -733.51031 1670
-395.45386 -732.63184 1668
-392.58707 -732.63184 1668
-389.72028 -732.63184 1668
-386.85349 -732.63184 1668
-383.98669 -732.63184 1668
-380.43445 -731.31415 1665
-376.89252 -729.99652 1662
-374.71121 -731.31415 1665
-372.51956 -732.63184 1668
-369.65277 -732.63184 1668
-366.78598 -732.63184 1668
-364.35556 -733.51031 1670
-361.48535 -733.51031 1670
-358.61511 -733.51031 1670
-355.31885 -732.63184 1668
-352.87469 -733.51031 1670
-349.5853 -732.63184 1668
-346.71851 -732.63184 1668
-343.23328 -731.31415 1665
-339.75836 -729.99652 1662
-336.90189 -729.99652 1662
-334.04544 -729.99652 1662
-331.78677 -731.31415 1665
-328.92514 -731.31415 1665
-326.06351 -731.31415 1665
-323.20187 -731.31415 1665
-320.34024 -731.31415 1665
-317.47861 -731.31415 1665
-314.617 -731.31415 1665
-311.75537 -731.31415 1665
-308.89374 -731.31415 1665
-306.58353 -732.63184 1668
-303.17047 -731.31415 1665
-300.30884 -731.31415 1665
-297.4472 -731.31415 1665
-294.5856 -731.31415 1665
-291.72397 -731.31415 1665
-288.34186 -729.99652 1662
-285.14185 -729.11804 1660
-282.28882 -729.11804 1660
-278.93076 -727.80035 1657
-275.58304 -726.48267 1654
-272.74033 -726.48267 1654
-269.89758 -726.48267 1654
-267.53925 -727.80035 1657
-264.69138 -727.80035 1657
-262.31757 -729.11804 1660
-259.46451 -729.11804 1660
-256.92065 -729.99652 1662
-254.06419 -729.99652 1662
-251.20772 -729.99652 1662
-248.35124 -729.99652 1662
-245.49477 -729.99652 1662
-242.63831 -729.99652 1662
-239.78183 -729.99652 1662
-236.64024 -729.11804 1660
-233.7872 -729.11804 1660
-230.93417 -729.11804 1660
-228.08113 -729.11804 1660
-225.22812 -729.11804 1660
-222.37508 -729.11804 1660
-219.52203 -729.11804 1660
-216.66901 -729.11804 1660
-213.81596 -729.11804 1660
-210.96294 -729.11804 1660
-208.10989 -729.11804 1660
-204.88591 -727.80035 1657
-202.03802 -727.80035 1657
-198.82951 -726.48267 1654
-196.34227 -727.80035 1657
-193.49438 -727.80035 1657
-190.64651 -727.80035 1657
-187.45863 -726.48267 1654
-184.95076 -727.80035 1657
-182.10287 -727.80035 1657
-179.25499 -727.80035 1657
-176.40712 -727.80035 1657
-173.55923 -727.80035 1657
-170.40228 -726.48267 1654
-167.86348 -727.80035 1657
-165.01559 -727.80035 1657
-161.87411 -726.48267 1654
-158.8391 -725.60425 1652
-155.99982 -725.60425 1652
-153.16054 -725.60425 1652
-150.32124 -725.60425 1652
-147.48196 -725.60425 1652
-144.64267 -725.60425 1652
-141.80339 -725.60425 1652
-138.9641 -725.60425 1652
-136.28961 -726.48267 1654
-133.68893 -727.80035 1657
-130.84105 -727.80035 1657
-127.99317 -727.80035 1657
-124.91872 -726.48267 1654
-122.076 -726.48267 1654
-119.23327 -726.48267 1654
-116.39055 -726.48267 1654
-113.54782 -726.48267 1654
-110.7051 -726.48267 1654
-107.86238 -726.48267 1654
-105.01965 -726.48267 1654
-102.05338 -725.60425 1652
-99.033928 -724.2865 1649
-96.199799 -724.2865 1649
-93.195808 -722.96887 1646
-90.257027 -722.09039 1644
-87.431496 -722.09039 1644
-84.605957 -722.09039 1644
-81.631187 -720.77271 1641
-78.954887 -722.09039 1644
-76.221962 -722.96887 1646
-73.39299 -722.96887 1646
-70.564018 -722.96887 1646
-67.735046 -722.96887 1646
-64.906067 -722.96887 1646
-62.077095 -722.96887 1646
-59.356113 -724.2865 1649
-56.521984 -724.2865 1649
-53.687851 -724.2865 1649
-50.853722 -724.2865 1649
-48.019588 -724.2865 1649
-45.185459 -724.2865 1649
-42.35133 -724.2865 1649
-39.5172 -724.2865 1649
-36.616333 -722.96887 1646
-33.787361 -722.96887 1646
-30.958387 -722.96887 1646
-28.180683 -724.2865 1649
-25.346552 -724.2865 1649
-22.471468 -722.96887 1646
-19.618628 -722.09039 1644
-16.81352 -722.96887 1646
-13.967554 -722.09039 1644
-11.155573 -722.96887 1646
-8.3164816 -722.09039 1644
-5.480926 -720.77271 1641
-2.6605461 -720.77271 1641
0.15983416 -720.77271 1641
2.9802141 -720.77271 1641
5.8005943 -720.77271 1641
8.6209745 -720.77271 1641
11.420438 -719.45508 1638
14.235662 -719.45508 1638
17.050886 -719.45508 1638
19.86611 -719.45508 1638
22.681334 -719.45508 1638
25.543255 -720.77271 1641
28.311783 -719.45508 1638
31.184017 -720.77271 1641
34.004398 -720.77271 1641
36.824776 -720.77271 1641
39.717632 -722.09039 1644
42.543171 -722.09039 1644
45.368706 -722.09039 1644
48.106297 -720.77271 1641
50.926678 -720.77271 1641
53.845314 -722.09039 1644
56.670853 -722.09039 1644
59.496387 -722.09039 1644
62.208195 -720.77271 1641
65.028572 -720.77271 1641
67.848953 -720.77271 1641
70.669334 -720.77271 1641
73.489716 -720.77271 1641
76.310097 -720.77271 1641
78.985817 -719.45508 1638
81.801041 -719.45508 1638
84.616264 -719.45508 1638
87.32473 -718.5766 1636
90.13652 -718.5766 1636
92.777863 -717.25885 1633
95.584488 -717.25885 1633
98.391121 -717.25885 1633
101.19775 -717.25885 1633
103.81332 -715.94122 1630
106.61479 -715.94122 1630
109.28201 -715.06274 1628
112.21774 -715.94122 1630
115.01922 -715.94122 1630
117.67612 -715.06274 1628
120.47416 -715.06274 1628
123.27219 -715.06274 1628
126.22511 -715.94122 1630
129.0266 -715.94122 1630
131.66631 -715.06274 1628
134.46434 -715.06274 1628
137.26237 -715.06274 1628
140.06041 -715.06274 1628
142.85846 -715.06274 1628
145.65649 -715.06274 1628
148.45453 -715.06274 1628
151.25256 -715.06274 1628
154.0506 -715.06274 1628
157.04134 -715.94122 1630
159.8428 -715.94122 1630
163.24297 -718.5766 1636
165.75026 -717.25885 1633
168.86653 -718.5766 1636
171.67833 -718.5766 1636
174.49011 -718.5766 1636
177.51866 -719.45508 1638
180.33388 -719.45508 1638
182.92548 -718.5766 1636
185.73726 -718.5766 1636
188.54904 -718.5766 1636
191.59477 -719.45508 1638
194.17262 -718.5766 1636
196.26198 -715.94122 1630
199.06345 -715.94122 1630
201.86493 -715.94122 1630
204.6664 -715.94122 1630
207.46788 -715.94122 1630
210.26935 -715.94122 1630
213.07082 -715.94122 1630
215.8723 -715.94122 1630
218.67377 -715.94122 1630
221.47525 -715.94122 1630
224.27672 -715.94122 1630
227.0782 -715.94122 1630
229.87967 -715.94122 1630
232.68114 -715.94122 1630
235.48262 -715.94122 1630
238.28409 -715.94122 1630
240.78976 -715.06274 1628
243.88704 -715.94122 1630
246.68852 -715.94122 1630
249.48999 -715.94122 1630
252.29146 -715.94122 1630
255.56244 -717.25885 1633
258.36908 -717.25885 1633
261.17569 -717.25885 1633
263.98233 -717.25885 1633
266.78897 -717.25885 1633
269.59558 -717.25885 1633
271.90179 -715.94122 1630
274.36621 -715.06274 1628
276.31302 -712.86658 1623
279.10245 -712.86658 1623
281.89191 -712.86658 1623
284.68134 -712.86658 1623
287.47079 -712.86658 1623
289.72369 -711.54895 1620
292.508 -711.54895 1620
295.29227 -711.54895 1620
298.62854 -712.86658 1623
301.78943 -713.74506 1625
304.58231 -713.74506 1625
306.99689 -712.86658 1623
309.21371 -711.54895 1620
311.99799 -711.54895 1620
314.78229 -711.54895 1620
317.56656 -711.54895 1620
320.35086 -711.54895 1620
323.13513 -711.54895 1620
335.30399 -713.74506 1625
338.09686 -713.74506 1625
340.88977 -713.74506 1625
343.68265 -713.74506 1625
346.0491 -712.86658 1623
349.2684 -713.74506 1625
352.06128 -713.74506 1625
354.85416 -713.74506 1625
357.20688 -712.86658 1623
359.99631 -712.86658 1623
362.78577 -712.86658 1623
366.0257 -713.74506 1625
368.81857 -713.74506 1625
372.29752 -715.06274 1628
375.09555 -715.06274 1628
376.03662 -711.54895 1620
378.82089 -711.54895 1620
381.60519 -711.54895 1620
384.38947 -711.54895 1620
387.17377 -711.54895 1620
389.95804 -711.54895 1620
392.74234 -711.54895 1620
394.79416 -710.23126 1617
397.5733 -710.23126 1617
401.09518 -711.54895 1620
403.87949 -711.54895 1620
406.66376 -711.54895 1620
409.44806 -711.54895 1620
412.23233 -711.54895 1620
415.78519 -712.86658 1623
418.57462 -712.86658 1623
421.8833 -713.74506 1625
424.1535 -712.86658 1623
426.94296 -712.86658 1623
428.93808 -711.54895 1620
430.92288 -710.23126 1617
434.50665 -711.54895 1620
436.48114 -710.23126 1617
438.71698 -709.35278 1615
441.49265 -709.35278 1615
444.26834 -709.35278 1615
447.04404 -709.35278 1615
449.81973 -709.35278 1615
452.59543 -709.35278 1615
455.93503 -710.23126 1617
458.14682 -709.35278 1615
460.06628 -708.0351 1612
462.83682 -708.0351 1612
465.60736 -708.0351 1612
468.3779 -708.0351 1612
470.56393 -707.15668 1610
473.33102 -707.15668 1610
475.21094 -705.83893 1607
477.9729 -705.83893 1607
480.73483 -705.83893 1607
485.00113 -708.0351 1612
487.77167 -708.0351 1612
490.54221 -708.0351 1612
504.3949 -708.0351 1612
507.16544 -708.0351 1612
509.30331 -707.15668 1610
512.70648 -708.0351 1612
515.47705 -708.0351 1612
518.24756 -708.0351 1612
521.01813 -708.0351 1612
523.78864 -708.0351 1612
526.5592 -708.0351 1612
529.32971 -708.0351 1612
532.10028 -708.0351 1612
534.87079 -708.0351 1612
544.25958 -705.83893 1607
546.34076 -704.96051 1605
549.09924 -704.96051 1605
551.85773 -704.96051 1605
555.30731 -705.83893 1607
558.06927 -705.83893 1607
560.1333 -704.96051 1605
562.89178 -704.96051 1605
565.65027 -704.96051 1605
569.11707 -705.83893 1607
571.87903 -705.83893 1607
575.71375 -707.15668 1610
577.40289 -705.83893 1607
580.16486 -705.83893 1607
582.92676 -705.83893 1607
586.78217 -707.15668 1610
590.28156 -708.0351 1612
593.05212 -708.0351 1612
595.08344 -707.15668 1610
597.85052 -707.15668 1610
600.61761 -707.15668 1610
603.38477 -707.15668 1610
606.15186 -707.15668 1610
608.91895 -707.15668 1610
611.68604 -707.15668 1610
613.30817 -705.83893 1607
616.07013 -705.83893 1607
619.98737 -707.15668 1610
621.59399 -705.83893 1607
626.29858 -708.0351 1612
629.06909 -708.0351 1612
631.05573 -707.15668 1610
632.64178 -705.83893 1607
635.40375 -705.83893 1607
638.16565 -705.83893 1607
640.92761 -705.83893 1607
642.88849 -704.96051 1605
645.64697 -704.96051 1605
648.40552 -704.96051 1605
651.164 -704.96051 1605
653.92249 -704.96051 1605
656.68103 -704.96051 1605
674.65094 -709.35278 1615
676.16821 -708.0351 1612
678.93878 -708.0351 1612
681.70929 -708.0351 1612
682.35681 -705.83893 1607
686.39777 -707.15668 1610
687.88068 -705.83893 1607
689.78308 -704.96051 1605
691.24713 -703.64282 1602
691.53467 -698.37207 1590
695.14069 -699.25055 1592
700.06873 -701.44672 1597
702.81348 -701.44672 1597
704.67456 -700.56824 1595
706.08539 -699.25055 1592
708.82153 -699.25055 1592
711.55768 -699.25055 1592
714.29388 -699.25055 1592
718.38116 -700.56824 1595
719.76617 -699.25055 1592
722.04962 -696.17596 1585
739.71582 -694.85828 1582
741.49622 -693.97986 1580
744.21173 -693.97986 1580
792.87708 -696.17596 1585
795.99554 -691.78369 1575
798.70251 -691.78369 1575
802.42712 -692.66211 1577
804.11639 -691.78369 1575
806.82336 -691.78369 1575
-764.21375 -745.51544 1704
-762.62537 -746.82794 1707
-761.02673 -748.14044 1710
-756.75775 -746.82794 1707
-753.82391 -746.82794 1707
-749.5705 -745.51544 1704
-746.64178 -745.51544 1704
-742.40375 -744.20288 1701
-738.17609 -742.89032 1698
-733.95868 -741.57782 1695
-730.18292 -740.70282 1693
-727.27319 -740.70282 1693
-724.3634 -740.70282 1693
-721.45367 -740.70282 1693
-718.54395 -740.70282 1693
-713.09796 -738.07776 1687
-710.19855 -738.07776 1687
-708.55682 -739.39026 1690
-704.39966 -738.07776 1687
-701.50018 -738.07776 1687
-697.3584 -736.7652 1684
-692.40216 -734.5777 1679
-688.28448 -733.26514 1676
-686.6308 -734.5777 1679
-683.74512 -734.5777 1679
-680.85944 -734.5777 1679
-677.97375 -734.5777 1679
-675.08801 -734.5777 1679
-672.20233 -734.5777 1679
-669.31665 -734.5777 1679
-666.43097 -734.5777 1679
-664.33569 -735.4527 1681
-660.65961 -734.5777 1679
-657.77393 -734.5777 1679
-654.88818 -734.5777 1679
-652.0025 -734.5777 1679
-649.11682 -734.5777 1679
-645.07648 -733.26514 1676
-642.19598 -733.26514 1676
-640.45978 -734.5777 1679
-637.57404 -734.5777 1679
-636.57843 -736.7652 1684
-634.81311 -738.07776 1687
-630.78992 -736.7652 1684
-627.89563 -736.7652 1684
-626.11475 -738.07776 1687
-623.21533 -738.07776 1687
-620.31586 -738.07776 1687
-616.31848 -736.7652 1684
-612.33142 -735.4527 1681
-608.71716 -734.5777 1679
-604.74902 -733.26514 1676
-600.79114 -731.95258 1673
-596.84357 -730.64014 1670
-593.97333 -730.64014 1670
-591.10309 -730.64014 1670
-587.52844 -729.76508 1668
-584.66162 -729.76508 1668
-580.74847 -728.45251 1665
-577.88684 -728.45251 1665
-576.06128 -729.76508 1668
-573.19452 -729.76508 1668
-571.01154 -730.64014 1670
-568.1413 -730.64014 1670
-565.27112 -730.64014 1670
-562.40088 -730.64014 1670
-559.53064 -730.64014 1670
-557.66046 -731.95258 1673
-554.7851 -731.95258 1673
-550.91998 -730.64014 1670
-548.04974 -730.64014 1670
-545.17957 -730.64014 1670
-542.30933 -730.64014 1670
-539.43909 -730.64014 1670
-536.56891 -730.64014 1670
-533.69867 -730.64014 1670
-530.82843 -730.64014 1670
-527.95819 -730.64014 1670
-525.08801 -730.64014 1670
-521.59241 -729.76508 1668
-518.72559 -729.76508 1668
-515.85883 -729.76508 1668
-512.992 -729.76508 1668
-510.12524 -729.76508 1668
-506.34616 -728.45251 1665
-503.48453 -728.45251 1665
-500.62289 -728.45251 1665
-497.76126 -728.45251 1665
-494.89963 -728.45251 1665
-492.03799 -728.45251 1665
-489.17636 -728.45251 1665
-485.43848 -727.14001 1662
-482.00131 -726.26501 1660
-479.14825 -726.26501 1660
-476.86905 -727.14001 1662
-474.0126 -727.14001 1662
-472.00659 -728.45251 1665
-469.14499 -728.45251 1665
-467.12347 -729.76508 1668
-464.25668 -729.76508 1668
-461.94312 -730.64014 1670
-459.07288 -730.64014 1670
-456.20267 -730.64014 1670
-453.33243 -730.64014 1670
-450.46225 -730.64014 1670
-447.59201 -730.64014 1670
-444.7218 -730.64014 1670
-441.32239 -729.76508 1668
-438.45563 -729.76508 1668
-435.58884 -729.76508 1668
-432.72205 -729.76508 1668
-430.3707 -730.64014 1670
-428.26843 -731.95258 1673
-425.39304 -731.95258 1673
-423.27533 -733.26514 1676
-421.14728 -734.5777 1679
-418.75983 -735.4527 1681
-415.37589 -734.5777 1679
-411.75317 -733.26514 1676
-408.14078 -731.95258 1673
-404.5387 -730.64014 1670
-401.18741 -729.76508 1668
-397.60422 -728.45251 1665
-394.74258 -728.45251 1665
-391.88098 -728.45251 1665
-389.01935 -728.45251 1665
-386.85349 -729.76508 1668
-383.98669 -729.76508 1668
-380.43445 -728.45251 1665
-376.89252 -727.14001 1662
-374.71121 -728.45251 1665
-371.84958 -728.45251 1665
-369.65277 -729.76508 1668
-366.78598 -729.76508 1668
-363.91922 -729.76508 1668
-361.05243 -729.76508 1668
-358.18564 -729.76508 1668
-354.67981 -728.45251 1665
-352.45206 -729.76508 1668
-348.95654 -728.45251 1665
-346.09491 -728.45251 1665
-342.61484 -727.14001 1662
-339.75836 -727.14001 1662
-336.90189 -727.14001 1662
-333.64343 -726.26501 1660
-331.18896 -727.14001 1662
-328.33249 -727.14001 1662
-325.47601 -727.14001 1662
-322.61954 -727.14001 1662
-319.76306 -727.14001 1662
-316.90659 -727.14001 1662
-314.617 -728.45251 1665
-311.75537 -728.45251 1665
-308.89374 -728.45251 1665
-306.0321 -728.45251 1665
-303.17047 -728.45251 1665
-300.30884 -728.45251 1665
-297.4472 -728.45251 1665
-294.5856 -728.45251 1665
-291.19833 -727.14001 1662
-287.99487 -726.26501 1660
-285.14185 -726.26501 1660
-281.77866 -724.95245 1657
-278.93076 -724.95245 1657
-275.58304 -723.63995 1654
-272.74033 -723.63995 1654
-269.89758 -723.63995 1654
-267.53925 -724.95245 1657
-264.69138 -724.95245 1657
-261.84351 -724.95245 1657
-259.46451 -726.26501 1660
-256.92065 -727.14001 1662
-254.06419 -727.14001 1662
-251.20772 -727.14001 1662
-248.35124 -727.14001 1662
-245.19934 -726.26501 1660
-242.34631 -726.26501 1660
-239.49327 -726.26501 1660
-236.21259 -724.95245 1657
-233.3647 -724.95245 1657
-230.93417 -726.26501 1660
-227.66895 -724.95245 1657
-224.82106 -724.95245 1657
-221.97319 -724.95245 1657
-219.12531 -724.95245 1657
-216.27742 -724.95245 1657
-213.42955 -724.95245 1657
-210.58167 -724.95245 1657
-207.73378 -724.95245 1657
-204.26767 -722.76495 1652
-201.42839 -722.76495 1652
-198.5891 -722.76495 1652
-195.74982 -722.76495 1652
-193.14407 -723.63995 1654
-190.30135 -723.63995 1654
-187.23196 -722.76495 1652
-184.61591 -723.63995 1654
-181.77318 -723.63995 1654
-179.25499 -724.95245 1657
-176.08774 -723.63995 1654
-173.24501 -723.63995 1654
-170.40228 -723.63995 1654
-167.55957 -723.63995 1654
-164.71684 -723.63995 1654
-161.87411 -723.63995 1654
-158.8391 -722.76495 1652
-155.71651 -721.45239 1649
-152.88239 -721.45239 1649
-150.32124 -722.76495 1652
-147.48196 -722.76495 1652
-144.64267 -722.76495 1652
-141.54587 -721.45239 1649
-138.9641 -722.76495 1652
-136.28961 -723.63995 1654
-133.44688 -723.63995 1654
-130.60416 -723.63995 1654
-127.76144 -723.63995 1654
-124.76767 -722.76495 1652
-121.92839 -722.76495 1652
-119.23327 -723.63995 1654
-116.39055 -723.63995 1654
-113.54782 -723.63995 1654
-110.7051 -723.63995 1654
-107.86238 -723.63995 1654
-105.01965 -723.63995 1654
-102.05338 -722.76495 1652
-99.033928 -721.45239 1649
-96.199799 -721.45239 1649
-93.195808 -720.13989 1646
-90.257027 -719.26489 1644
-87.431496 -719.26489 1644
-84.605957 -719.26489 1644
-81.780418 -719.26489 1644
-78.954887 -719.26489 1644
-76.221962 -720.13989 1646
-73.39299 -720.13989 1646
-70.564018 -720.13989 1646
-67.735046 -720.13989 1646
-64.906067 -720.13989 1646
-62.001667 -719.26489 1644
-59.248123 -720.13989 1646
-56.521984 -721.45239 1649
-53.590176 -720.13989 1646
-50.761204 -720.13989 1646
-48.019588 -721.45239 1649
-45.185459 -721.45239 1649
-42.35133 -721.45239 1649
-39.445309 -720.13989 1646
-36.616333 -720.13989 1646
-33.787361 -720.13989 1646
-30.958387 -720.13989 1646
-28.129416 -720.13989 1646
-25.346552 -721.45239 1649
-22.471468 -720.13989 1646
-19.618628 -719.26489 1644
-16.81352 -720.13989 1646
-13.967554 -719.26489 1644
-11.155573 -720.13989 1646
-8.3164816 -719.26489 1644
-5.480926 -717.95233 1641
-2.6605461 -717.95233 1641
0.15983416 -717.95233 1641
2.9802141 -717.95233 1641
5.8005943 -717.95233 1641
8.6209745 -717.95233 1641
11.420438 -716.63983 1638
14.21828 -715.76477 1636
17.030067 -715.76477 1636
19.86611 -716.63983 1638
22.681334 -716.63983 1638
25.496557 -716.63983 1638
28.311783 -716.63983 1638
31.127007 -716.63983 1638
33.94223 -716.63983 1638
36.824776 -717.95233 1641
39.717632 -719.26489 1644
42.543171 -719.26489 1644
45.368706 -719.26489 1644
48.106297 -717.95233 1641
50.926678 -717.95233 1641
53.747059 -717.95233 1641
56.567432 -717.95233 1641
59.387814 -717.95233 1641
62.208195 -717.95233 1641
64.909698 -716.63983 1638
67.724922 -716.63983 1638
70.540146 -716.63983 1638
73.35537 -716.63983 1638
76.170593 -716.63983 1638
78.889374 -715.76477 1636
81.701157 -715.76477 1636
84.512947 -715.76477 1636
87.164597 -714.45227 1633
89.97123 -714.45227 1633
92.777863 -714.45227 1633
95.584488 -714.45227 1633
98.210373 -713.13977 1630
101.01184 -713.13977 1630
103.68594 -712.26471 1628
106.48398 -712.26471 1628
109.28201 -712.26471 1628
112.08006 -712.26471 1628
114.87808 -712.26471 1628
117.67612 -712.26471 1628
120.47416 -712.26471 1628
123.27219 -712.26471 1628
126.07023 -712.26471 1628
129.0266 -713.13977 1630
131.66631 -712.26471 1628
134.46434 -712.26471 1628
137.26237 -712.26471 1628
139.80232 -710.95215 1625
142.85846 -712.26471 1628
145.65649 -712.26471 1628
148.45453 -712.26471 1628
151.25256 -712.26471 1628
153.76674 -710.95215 1625
156.84863 -712.26471 1628
159.8428 -713.13977 1630
162.94363 -714.45227 1633
165.75026 -714.45227 1633
168.55688 -714.45227 1633
171.36353 -714.45227 1633
174.49011 -715.76477 1636
177.3019 -715.76477 1636
180.11368 -715.76477 1636
182.92548 -715.76477 1636
185.39667 -714.45227 1633
188.20331 -714.45227 1633
191.36082 -715.76477 1636
193.81656 -714.45227 1633
196.26198 -713.13977 1630
198.8192 -712.26471 1628
201.61723 -712.26471 1628
204.41527 -712.26471 1628
207.46788 -713.13977 1630
210.26935 -713.13977 1630
213.07082 -713.13977 1630
215.8723 -713.13977 1630
218.67377 -713.13977 1630
221.47525 -713.13977 1630
224.27672 -713.13977 1630
227.0782 -713.13977 1630
229.87967 -713.13977 1630
232.39565 -712.26471 1628
235.1937 -712.26471 1628
237.99173 -712.26471 1628
240.78976 -712.26471 1628
243.88704 -713.13977 1630
246.68852 -713.13977 1630
249.18387 -712.26471 1628
251.9819 -712.26471 1628
255.09294 -713.13977 1630
258.36908 -714.45227 1633
261.17569 -714.45227 1633
263.98233 -714.45227 1633
266.29883 -713.13977 1630
269.10031 -713.13977 1630
271.56818 -712.26471 1628
273.86063 -710.95215 1625
276.31302 -710.07715 1623
279.10245 -710.07715 1623
281.89191 -710.07715 1623
284.68134 -710.07715 1623
287.47079 -710.07715 1623
289.72369 -708.76465 1620
292.508 -708.76465 1620
295.29227 -708.76465 1620
298.62854 -710.07715 1623
301.78943 -710.95215 1625
304.20743 -710.07715 1623
306.99689 -710.07715 1623
308.64108 -707.45209 1617
311.42023 -707.45209 1617
314.78229 -708.76465 1620
317.56656 -708.76465 1620
320.35086 -708.76465 1620
322.13782 -706.57709 1615
324.91351 -706.57709 1615
332.10187 -710.07715 1623
335.30399 -710.95215 1625
338.09686 -710.95215 1625
340.88977 -710.95215 1625
343.25964 -710.07715 1623
346.0491 -710.07715 1623
348.83853 -710.07715 1623
351.62799 -710.07715 1623
354.41742 -710.07715 1623
357.20688 -710.07715 1623
359.99631 -710.07715 1623
362.78577 -710.07715 1623
365.5752 -710.07715 1623
368.81857 -710.95215 1625
371.61145 -710.95215 1625
375.09555 -712.26471 1628
376.03662 -708.76465 1620
378.82089 -708.76465 1620
381.60519 -708.76465 1620
384.38947 -708.76465 1620
387.17377 -708.76465 1620
389.95804 -708.76465 1620
392.01501 -707.45209 1617
394.79416 -707.45209 1617
397.5733 -707.45209 1617
400.35242 -707.45209 1617
403.13156 -707.45209 1617
406.66376 -708.76465 1620
409.44806 -708.76465 1620
412.23233 -708.76465 1620
415.01663 -708.76465 1620
418.57462 -710.07715 1623
421.36407 -710.07715 1623
424.1535 -710.07715 1623
426.15378 -708.76465 1620
428.14374 -707.45209 1617
430.92288 -707.45209 1617
433.702 -707.45209 1617
436.48114 -707.45209 1617
438.71698 -706.57709 1615
441.49265 -706.57709 1615
444.26834 -706.57709 1615
447.04404 -706.57709 1615
449.81973 -706.57709 1615
452.59543 -706.57709 1615
455.37112 -706.57709 1615
458.14682 -706.57709 1615
460.06628 -705.26459 1612
462.83682 -705.26459 1612
465.60736 -705.26459 1612
468.3779 -705.26459 1612
470.56393 -704.38953 1610
473.33102 -704.38953 1610
475.21094 -703.07703 1607
477.9729 -703.07703 1607
481.63232 -704.38953 1610
485.00113 -705.26459 1612
487.77167 -705.26459 1612
490.54221 -705.26459 1612
493.31274 -705.26459 1612
496.08328 -705.26459 1612
498.85382 -705.26459 1612
501.00201 -704.38953 1610
503.76913 -704.38953 1610
506.53622 -704.38953 1610
509.30331 -704.38953 1610
512.07043 -704.38953 1610
514.83752 -704.38953 1610
517.60461 -704.38953 1610
520.3717 -704.38953 1610
523.78864 -705.26459 1612
526.5592 -705.26459 1612
529.32971 -705.26459 1612
532.10028 -705.26459 1612
534.20721 -704.38953 1610
538.73566 -703.07703 1607
541.49762 -703.07703 1607
543.58221 -702.20203 1605
546.34076 -702.20203 1605
548.07288 -700.88947 1602
551.85773 -702.20203 1605
554.61627 -702.20203 1605
557.37476 -702.20203 1605
560.1333 -702.20203 1605
561.8396 -700.88947 1602
565.65027 -702.20203 1605
568.40881 -702.20203 1605
571.87903 -703.07703 1607
574.64093 -703.07703 1607
576.68433 -702.20203 1605
579.44281 -702.20203 1605
582.20135 -702.20203 1605
585.68872 -703.07703 1607
589.54926 -704.38953 1610
593.05212 -705.26459 1612
595.08344 -704.38953 1610
596.73651 -703.07703 1607
600.61761 -704.38953 1610
602.26038 -703.07703 1607
606.15186 -704.38953 1610
608.91895 -704.38953 1610
611.68604 -704.38953 1610
613.30817 -703.07703 1607
616.07013 -703.07703 1607
619.98737 -704.38953 1610
622.75446 -704.38953 1610
626.29858 -705.26459 1612
629.06909 -705.26459 1612
631.05573 -704.38953 1610
632.64178 -703.07703 1607
635.40375 -703.07703 1607
638.16565 -703.07703 1607
640.92761 -703.07703 1607
642.88849 -702.20203 1605
645.64697 -702.20203 1605
648.40552 -702.20203 1605
651.164 -702.20203 1605
653.92249 -702.20203 1605
656.68103 -702.20203 1605
660.26123 -703.07703 1607
663.02319 -703.07703 1607
667.02808 -704.38953 1610
670.62714 -705.26459 1612
673.39771 -705.26459 1612
675.32935 -704.38953 1610
678.09644 -704.38953 1610
679.59485 -703.07703 1607
681.50757 -702.20203 1605
685.11871 -703.07703 1607
687.88068 -703.07703 1607
689.78308 -702.20203 1605
692.54163 -702.20203 1605
693.13409 -700.01447 1600
695.88397 -700.01447 1600
697.32391 -698.70197 1597
701.38385 -700.01447 1600
704.13373 -700.01447 1600
704.67456 -697.8269 1595
707.41589 -697.8269 1595
707.93103 -695.63934 1590
710.66376 -695.63934 1590
713.39648 -695.63934 1590
716.12921 -695.63934 1590
717.50562 -694.32684 1587
719.3255 -693.45184 1585
722.04962 -693.45184 1585
724.77374 -693.45184 1585
727.49792 -693.45184 1585
730.22205 -693.45184 1585
732.94617 -693.45184 1585
734.27789 -692.13928 1582
736.99689 -692.13928 1582
739.71582 -692.13928 1582
742.43481 -692.13928 1582
745.15381 -692.13928 1582
746.92731 -691.26428 1580
749.64282 -691.26428 1580
761.46765 -692.13928 1582
765.63574 -693.45184 1585
768.35992 -693.45184 1585
769.62457 -692.13928 1582
774.78461 -694.32684 1587
778.98193 -695.63934 1590
783.21948 -692.13928 1582
785.93848 -692.13928 1582
788.65741 -692.13928 1582
791.3764 -692.13928 1582
793.09143 -691.26428 1580
794.29596 -689.95178 1577
795.99554 -689.07672 1575
798.70251 -689.07672 1575
802.42712 -689.95178 1577
805.13751 -689.95178 1577
806.82336 -689.07672 1575
810.55829 -689.95178 1577
812.23724 -689.07672 1575
815.97906 -689.95178 1577
-762.86829 -741.27936 1701
-759.94476 -741.27936 1701
-757.0213 -741.27936 1701
-752.76782 -739.97198 1698
-749.84949 -739.97198 1698
-745.61145 -738.66467 1695
-742.69824 -738.66467 1695
-739.7851 -738.66467 1695
-736.00244 -737.79303 1693
-731.79364 -736.48566 1690
-727.59515 -735.17834 1687
-724.69574 -735.17834 1687
-723.07983 -736.48566 1690
-720.17523 -736.48566 1690
-717.27063 -736.48566 1690
-711.82983 -733.87091 1684
-708.93555 -733.87091 1684
-707.29907 -735.17834 1687
-703.14697 -733.87091 1684
-700.25269 -733.87091 1684
-695.2879 -731.69202 1679
-689.92786 -729.07721 1673
-687.05249 -729.07721 1673
-684.17712 -729.07721 1673
-682.52344 -730.38464 1676
-679.64288 -730.38464 1676
-675.55096 -729.07721 1673
-672.6756 -729.07721 1673
-669.80023 -729.07721 1673
-668.12079 -730.38464 1676
-666.43097 -731.69202 1679
-663.54529 -731.69202 1679
-660.65961 -731.69202 1679
-657.77393 -731.69202 1679
-654.88818 -731.69202 1679
-652.0025 -731.69202 1679
-647.95703 -730.38464 1676
-643.92181 -729.07721 1673
-639.89691 -727.7699 1670
-638.17102 -729.07721 1673
-635.29565 -729.07721 1673
-633.55438 -730.38464 1676
-631.80267 -731.69202 1679
-628.91699 -731.69202 1679
-626.03131 -731.69202 1679
-623.88794 -732.56354 1681
-620.99878 -732.56354 1681
-618.10968 -732.56354 1681
-614.48853 -731.69202 1679
-609.41724 -729.07721 1673
-605.45422 -727.7699 1670
-601.86237 -726.89832 1668
-598.99554 -726.89832 1668
-596.12878 -726.89832 1668
-593.97333 -727.7699 1670
-590.3952 -726.89832 1668
-586.47174 -725.59088 1665
-583.61011 -725.59088 1665
-580.74847 -725.59088 1665
-578.9281 -726.89832 1668
-576.06128 -726.89832 1668
-573.19452 -726.89832 1668
-570.3277 -726.89832 1668
-567.46094 -726.89832 1668
-565.27112 -727.7699 1670
-562.40088 -727.7699 1670
-559.53064 -727.7699 1670
-556.66046 -727.7699 1670
-553.79022 -727.7699 1670
-550.91998 -727.7699 1670
-548.04974 -727.7699 1670
-545.17957 -727.7699 1670
-541.65985 -726.89832 1668
-538.79309 -726.89832 1668
-535.92633 -726.89832 1668
-533.05951 -726.89832 1668
-529.2392 -725.59088 1665
-526.37756 -725.59088 1665
-523.51593 -725.59088 1665
-519.71613 -724.28357 1662
-516.23773 -723.41199 1660
-513.3847 -723.41199 1660
-510.53165 -723.41199 1660
-507.67862 -723.41199 1660
-504.82559 -723.41199 1660
-501.97256 -723.41199 1660
-499.11951 -723.41199 1660
-496.26648 -723.41199 1660
-494.0079 -724.28357 1662
-491.15143 -724.28357 1662
-487.70737 -723.41199 1660
-484.85434 -723.41199 1660
-481.13019 -722.10455 1657
-479.14825 -723.41199 1660
-476.29523 -723.41199 1660
-474.0126 -724.28357 1662
-472.00659 -725.59088 1665
-469.14499 -725.59088 1665
-466.28336 -725.59088 1665
-463.42172 -725.59088 1665
-461.38989 -726.89832 1668
-459.07288 -727.7699 1670
-456.20267 -727.7699 1670
-453.33243 -727.7699 1670
-449.92276 -726.89832 1668
-447.05597 -726.89832 1668
-443.39029 -725.59088 1665
-440.52866 -725.59088 1665
-437.66702 -725.59088 1665
-434.80539 -725.59088 1665
-432.72205 -726.89832 1668
-429.85526 -726.89832 1668
-427.50046 -727.7699 1670
-424.63025 -727.7699 1670
-422.51767 -729.07721 1673
-420.39478 -730.38464 1676
-418.2616 -731.69202 1679
-414.6337 -730.38464 1676
-411.01614 -729.07721 1673
-407.40891 -727.7699 1670
-404.0542 -726.89832 1668
-401.18741 -726.89832 1668
-397.60422 -725.59088 1665
-394.74258 -725.59088 1665
-391.88098 -725.59088 1665
-389.01935 -725.59088 1665
-386.15771 -725.59088 1665
-383.29608 -725.59088 1665
-380.43445 -725.59088 1665
-376.89252 -724.28357 1662
-374.03604 -724.28357 1662
-371.17957 -724.28357 1662
-368.32309 -724.28357 1662
-365.46661 -724.28357 1662
-362.61017 -724.28357 1662
-359.75369 -724.28357 1662
-356.89722 -724.28357 1662
-354.04074 -724.28357 1662
-351.81818 -725.59088 1665
-348.32779 -724.28357 1662
-345.47131 -724.28357 1662
-342.20255 -723.41199 1660
-339.34952 -723.41199 1660
-336.49649 -723.41199 1660
-333.64343 -723.41199 1660
-331.18896 -724.28357 1662
-328.33249 -724.28357 1662
-325.47601 -724.28357 1662
-322.61954 -724.28357 1662
-319.76306 -724.28357 1662
-316.90659 -724.28357 1662
-314.05011 -724.28357 1662
-310.81915 -723.41199 1660
-308.33716 -724.28357 1662
-305.48071 -724.28357 1662
-302.62424 -724.28357 1662
-299.76776 -724.28357 1662
-296.91129 -724.28357 1662
-294.05481 -724.28357 1662
-290.8479 -723.41199 1660
-287.99487 -723.41199 1660
-284.62653 -722.10455 1657
-281.77866 -722.10455 1657
-278.42578 -720.79724 1654
-275.24982 -719.92566 1652
-272.41052 -719.92566 1652
-269.57123 -719.92566 1652
-267.05487 -720.79724 1654
-264.21216 -720.79724 1654
-261.36942 -720.79724 1654
-258.99561 -722.10455 1657
-256.61148 -723.41199 1660
-253.75845 -723.41199 1660
-250.90541 -723.41199 1660
-248.05238 -723.41199 1660
-245.19934 -723.41199 1660
-241.90834 -722.10455 1657
-239.06046 -722.10455 1657
-236.21259 -722.10455 1657
-233.3647 -722.10455 1657
-230.51682 -722.10455 1657
-227.66895 -722.10455 1657
-224.82106 -722.10455 1657
-221.97319 -722.10455 1657
-219.12531 -722.10455 1657
-216.27742 -722.10455 1657
-213.42955 -722.10455 1657
-210.58167 -722.10455 1657
-207.35768 -720.79724 1654
-203.89671 -718.61829 1649
-201.06259 -718.61829 1649
-197.86783 -717.31091 1646
-195.39433 -718.61829 1649
-192.5602 -718.61829 1649
-189.72607 -718.61829 1649
-186.89194 -718.61829 1649
-184.05782 -718.61829 1649
-181.55339 -719.92566 1652
-178.7141 -719.92566 1652
-175.87482 -719.92566 1652
-173.03554 -719.92566 1652
-170.19624 -719.92566 1652
-167.55957 -720.79724 1654
-164.71684 -720.79724 1654
-161.67839 -719.92566 1652
-158.55064 -718.61829 1649
-155.43323 -717.31091 1646
-152.60425 -717.31091 1646
-150.04825 -718.61829 1649
-147.21413 -718.61829 1649
