# .PCD v0.7 - Point Cloud Data file format
VERSION 0.7
FIELDS x y z
SIZE 4 4 4
TYPE F F F
COUNT 1 1 1
WIDTH 1835
HEIGHT 1
VIEWPOINT 0 0 0 1 0 0 0
POINTS 1835
DATA ascii
285.11551 -277.39264 999
286.83249 -277.39264 999
288.26065 -277.11496 998
289.97592 -277.11496 998
291.69116 -277.11496 998
293.40643 -277.11496 998
295.1217 -277.11496 998
296.83694 -277.11496 998
298.55222 -277.11496 998
300.56833 -277.39264 999
302.28531 -277.39264 999
304.30658 -277.67032 1000
463.26562 -415.67245 1497
465.83853 -415.67245 1497
468.41141 -415.67245 1497
470.98431 -415.67245 1497
473.55719 -415.67245 1497
476.13007 -415.67245 1497
478.70297 -415.67245 1497
481.27585 -415.67245 1497
483.84875 -415.67245 1497
486.42163 -415.67245 1497
488.99451 -415.67245 1497
491.56741 -415.67245 1497
494.14029 -415.67245 1497
496.71317 -415.67245 1497
499.28607 -415.67245 1497
501.85895 -415.67245 1497
505.10574 -416.22781 1499
507.68207 -416.22781 1499
510.25839 -416.22781 1499
512.83472 -416.22781 1499
515.41101 -416.22781 1499
517.29626 -415.67245 1497
519.86914 -415.67245 1497
522.44208 -415.67245 1497
525.01495 -415.67245 1497
527.58783 -415.67245 1497
530.16071 -415.67245 1497
531.66595 -414.83945 1494
534.2337 -414.83945 1494
536.80145 -414.83945 1494
540.45227 -415.67245 1497
543.02515 -415.67245 1497
544.50464 -414.83945 1494
547.07239 -414.83945 1494
549.64008 -414.83945 1494
553.31671 -415.67245 1497
555.88959 -415.67245 1497
557.34332 -414.83945 1494
559.91101 -414.83945 1494
562.47876 -414.83945 1494
565.04651 -414.83945 1494
567.6142 -414.83945 1494
570.18195 -414.83945 1494
572.74969 -414.83945 1494
575.31744 -414.83945 1494
577.11157 -414.28412 1492
580.45288 -414.83945 1494
583.02063 -414.83945 1494
585.58832 -414.83945 1494
587.36877 -414.28412 1492
589.93304 -414.28412 1492
593.29156 -414.83945 1494
597.05579 -415.67245 1497
599.62872 -415.67245 1497
600.99475 -414.83945 1494
603.56244 -414.83945 1494
606.13019 -414.83945 1494
608.69794 -414.83945 1494
611.26569 -414.83945 1494
613.83337 -414.83945 1494
616.40112 -414.83945 1494
618.96887 -414.83945 1494
622.78467 -415.67245 1497
625.35754 -415.67245 1497
627.93048 -415.67245 1497
631.34564 -416.22781 1499
633.922 -416.22781 1499
636.49835 -416.22781 1499
639.07465 -416.22781 1499
641.651 -416.22781 1499
644.22729 -416.22781 1499
646.80365 -416.22781 1499
648.51355 -415.67245 1497
649.78162 -414.83945 1494
652.34937 -414.83945 1494
656.23224 -415.67245 1497
659.68524 -416.22781 1499
663.1452 -416.78314 1501
665.72498 -416.78314 1501
668.30475 -416.78314 1501
670.88446 -416.78314 1501
674.36163 -417.33847 1503
676.94482 -417.33847 1503
679.52802 -417.33847 1503
682.11121 -417.33847 1503
683.78333 -416.78314 1501
686.36304 -416.78314 1501
688.94281 -416.78314 1501
690.60114 -416.22781 1499
693.17749 -416.22781 1499
695.75378 -416.22781 1499
697.39844 -415.67245 1497
699.97131 -415.67245 1497
702.54419 -415.67245 1497
705.11713 -415.67245 1497
708.63544 -416.22781 1499
711.21173 -416.22781 1499
714.74048 -416.78314 1501
716.36438 -416.22781 1499
718.94073 -416.22781 1499
721.51703 -416.22781 1499
725.05951 -416.78314 1501
726.66968 -416.22781 1499
729.24603 -416.22781 1499
731.82233 -416.22781 1499
734.39868 -416.22781 1499
736.97504 -416.22781 1499
739.55133 -416.22781 1499
742.12769 -416.22781 1499
743.71039 -415.67245 1497
746.28333 -415.67245 1497
748.8562 -415.67245 1497
751.42908 -415.67245 1497
754.00195 -415.67245 1497
756.57483 -415.67245 1497
759.14777 -415.67245 1497
761.72064 -415.67245 1497
762.76184 -414.83945 1494
766.86639 -415.67245 1497
767.89728 -414.83945 1494
772.01221 -415.67245 1497
775.61987 -416.22781 1499
778.19623 -416.22781 1499
779.73083 -415.67245 1497
782.30371 -415.67245 1497
784.87665 -415.67245 1497
785.8714 -414.83945 1494
-679.00208 -417.79074 1514
-676.40002 -417.79074 1514
-673.79791 -417.79074 1514
-671.1958 -417.79074 1514
-668.59369 -417.79074 1514
-665.99158 -417.79074 1514
-663.38947 -417.79074 1514
-659.91449 -417.23886 1512
-658.18524 -417.79074 1514
-655.58313 -417.79074 1514
-652.98102 -417.79074 1514
-649.51984 -417.23886 1512
-646.92114 -417.23886 1512
-645.17474 -417.79074 1514
-643.84589 -418.61862 1517
-641.23865 -418.61862 1517
-638.63141 -418.61862 1517
-636.02411 -418.61862 1517
-633.41687 -418.61862 1517
-630.80957 -418.61862 1517
-626.95996 -417.79074 1514
-625.59509 -418.61862 1517
-622.98779 -418.61862 1517
-620.38055 -418.61862 1517
-616.55157 -417.79074 1514
-615.16602 -418.61862 1517
-611.34735 -417.79074 1514
-608.74524 -417.79074 1514
-607.34424 -418.61862 1517
-605.53424 -419.1705 1519
-603.71741 -419.72241 1521
-600.31287 -419.1705 1519
-597.70215 -419.1705 1519
-595.09143 -419.1705 1519
-592.48077 -419.1705 1519
-589.87006 -419.1705 1519
-588.03259 -419.72241 1521
-583.87891 -418.61862 1517
-581.27161 -418.61862 1517
-577.51996 -417.79074 1514
-576.81653 -419.1705 1519
-574.20587 -419.1705 1519
-571.59515 -419.1705 1519
-569.73364 -419.72241 1521
-567.11951 -419.72241 1521
-565.24762 -420.27432 1523
-562.63007 -420.27432 1523
-561.1156 -421.10217 1526
-558.49286 -421.10217 1526
-555.87018 -421.10217 1526
-553.24744 -421.10217 1526
-550.62469 -421.10217 1526
-548.00195 -421.10217 1526
-545.37921 -421.10217 1526
-542.75653 -421.10217 1526
-539.0719 -420.27432 1523
-535.74988 -419.72241 1521
-533.13574 -419.72241 1521
-530.52161 -419.72241 1521
-527.90747 -419.72241 1521
-525.98401 -420.27432 1523
-523.36646 -420.27432 1523
-520.7489 -420.27432 1523
-518.13129 -420.27432 1523
-515.51373 -420.27432 1523
-512.89618 -420.27432 1523
-509.60849 -419.72241 1521
-507.66101 -420.27432 1523
-504.38022 -419.72241 1521
-501.76608 -419.72241 1521
-499.80829 -420.27432 1523
-497.1907 -420.27432 1523
-494.57312 -420.27432 1523
-491.95557 -420.27432 1523
-489.33798 -420.27432 1523
-486.7204 -420.27432 1523
-484.10284 -420.27432 1523
-480.853 -419.72241 1521
-478.23886 -419.72241 1521
-474.99927 -419.1705 1519
-472.38858 -419.1705 1519
-469.77789 -419.1705 1519
-466.55209 -418.61862 1517
-463.94485 -418.61862 1517
-460.42523 -417.79074 1514
-457.82312 -417.79074 1514
-455.22101 -417.79074 1514
-453.51581 -418.61862 1517
-450.01682 -417.79074 1514
-447.41473 -417.79074 1514
-444.22501 -417.23886 1512
-442.21051 -417.79074 1514
-439.6084 -417.79074 1514
-437.00629 -417.79074 1514
-434.40421 -417.79074 1514
-431.80209 -417.79074 1514
-429.19998 -417.79074 1514
-426.59787 -417.79074 1514
-423.43567 -417.23886 1512
-421.39368 -417.79074 1514
-418.23834 -417.23886 1512
-415.63965 -417.23886 1512
-413.04099 -417.23886 1512
-410.44232 -417.23886 1512
-408.38315 -417.79074 1514
-405.245 -417.23886 1512
-402.64633 -417.23886 1512
-400.57681 -417.79074 1514
-397.9747 -417.79074 1514
-395.37262 -417.79074 1514
-392.77051 -417.79074 1514
-390.94153 -418.61862 1517
-387.56628 -417.79074 1514
-384.96417 -417.79074 1514
-382.36209 -417.79074 1514
-379.75998 -417.79074 1514
-377.15787 -417.79074 1514
-374.55576 -417.79074 1514
-371.95364 -417.79074 1514
-368.86362 -417.23886 1512
-222.53444 -279.26303 1012
-220.7951 -279.26303 1012
-219.05579 -279.26303 1012
-217.10173 -278.98709 1011
-215.36412 -278.98709 1011
-213.41524 -278.71112 1010
-211.46976 -278.43518 1009
-209.7356 -278.43518 1009
-207.79529 -278.15924 1008
-206.06284 -278.15924 1008
-204.12769 -277.88327 1007
-202.39696 -277.88327 1007
-200.66623 -277.88327 1007
-198.9355 -277.88327 1007
-197.00896 -277.60733 1006
-195.47404 -277.88327 1007
-193.55093 -277.60733 1006
-191.82193 -277.60733 1006
-190.09291 -277.60733 1006
-188.55113 -277.88327 1007
-186.82042 -277.88327 1007
-185.08969 -277.88327 1007
-183.35896 -277.88327 1007
-181.62823 -277.88327 1007
-179.89751 -277.88327 1007
-178.16678 -277.88327 1007
-176.26085 -277.60733 1006
-174.53185 -277.60733 1006
-172.63106 -277.33139 1005
-170.90378 -277.33139 1005
-169.17648 -277.33139 1005
-167.44919 -277.33139 1005
-165.72191 -277.33139 1005
-163.99461 -277.33139 1005
-162.42879 -277.60733 1006
-160.69978 -277.60733 1006
-158.97076 -277.60733 1006
-157.08545 -277.33139 1005
-155.35817 -277.33139 1005
-153.78375 -277.60733 1006
-152.05473 -277.60733 1006
-150.32573 -277.60733 1006
-148.74442 -277.88327 1007
-147.0137 -277.88327 1007
-145.28297 -277.88327 1007
-143.55225 -277.88327 1007
-141.82152 -277.88327 1007
-140.09079 -277.88327 1007
-138.36006 -277.88327 1007
-136.62933 -277.88327 1007
-134.89861 -277.88327 1007
-133.30013 -278.15924 1008
-131.56769 -278.15924 1008
-129.83524 -278.15924 1008
-128.22987 -278.43518 1009
-126.49571 -278.43518 1009
-124.76155 -278.43518 1009
-123.02739 -278.43518 1009
-121.29322 -278.43518 1009
-119.55906 -278.43518 1009
-117.82489 -278.43518 1009
-115.97567 -278.15924 1008
-114.24323 -278.15924 1008
-112.6224 -278.43518 1009
-110.88824 -278.43518 1009
-109.15408 -278.43518 1009
-107.41991 -278.43518 1009
-105.68575 -278.43518 1009
-103.95158 -278.43518 1009
-102.21741 -278.43518 1009
-100.38366 -278.15924 1008
-98.651215 -278.15924 1008
-96.91877 -278.15924 1008
-95.186325 -278.15924 1008
-93.361168 -277.88327 1007
-91.721436 -278.15924 1008
-89.988991 -278.15924 1008
-88.256538 -278.15924 1008
-86.524094 -278.15924 1008
-84.791649 -278.15924 1008
-83.059204 -278.15924 1008
-81.246078 -277.88327 1007
-79.515358 -277.88327 1007
-77.78463 -277.88327 1007
-75.978371 -277.60733 1006
-74.249367 -277.60733 1006
-72.520355 -277.60733 1006
-70.861717 -277.88327 1007
-69.130997 -277.88327 1007
-67.400269 -277.88327 1007
-65.66954 -277.88327 1007
-63.938812 -277.88327 1007
-62.208088 -277.88327 1007
-60.47736 -277.88327 1007
-58.746632 -277.88327 1007
-57.015907 -277.88327 1007
-55.230274 -277.60733 1006
-53.448086 -277.33139 1005
-51.720795 -277.33139 1005
-50.043251 -277.60733 1006
-48.314243 -277.60733 1006
-46.585236 -277.60733 1006
-44.856228 -277.60733 1006
-43.127216 -277.60733 1006
-41.398209 -277.60733 1006
-39.708633 -277.88327 1007
-37.977909 -277.88327 1007
-36.247181 -277.88327 1007
-34.482178 -277.60733 1006
-32.75317 -277.60733 1006
-31.02416 -277.60733 1006
-29.295153 -277.60733 1006
-27.566147 -277.60733 1006
-25.837137 -277.60733 1006
-24.132093 -277.88327 1007
-22.401367 -277.88327 1007
-20.711693 -278.43518 1009
-18.97753 -278.43518 1009
-17.243364 -278.43518 1009
-15.5092 -278.43518 1009
-13.775037 -278.43518 1009
-12.040873 -278.43518 1009
-10.296494 -278.15924 1008
-8.5640478 -278.15924 1008
-6.8316026 -278.15924 1008
-5.0991569 -278.15924 1008
-3.3667114 -278.15924 1008
-1.6342659 -278.15924 1008
0.09827707 -278.43518 1009
1.8324412 -278.43518 1009
3.5701401 -278.71112 1010
5.3060231 -278.71112 1010
7.034934 -278.43518 1009
8.7690983 -278.43518 1009
10.503263 -278.43518 1009
12.237427 -278.43518 1009
13.985437 -278.71112 1010
15.721322 -278.71112 1010
17.43992 -278.43518 1009
19.174084 -278.43518 1009
20.92897 -278.71112 1010
22.664854 -278.71112 1010
24.400736 -278.71112 1010
26.13662 -278.71112 1010
27.872501 -278.71112 1010
29.579069 -278.43518 1009
31.313234 -278.43518 1009
33.047398 -278.43518 1009
34.781563 -278.43518 1009
36.515728 -278.43518 1009
38.249889 -278.43518 1009
39.984055 -278.43518 1009
41.676872 -278.15924 1008
43.409321 -278.15924 1008
45.141766 -278.15924 1008
46.827709 -277.88327 1007
48.558434 -277.88327 1007
50.289162 -277.88327 1007
52.01989 -277.88327 1007
53.697239 -277.60733 1006
55.426247 -277.60733 1006
57.155254 -277.60733 1006
58.825726 -277.33139 1005
60.553017 -277.33139 1005
62.280304 -277.33139 1005
63.943909 -277.05542 1004
65.669479 -277.05542 1004
67.39505 -277.05542 1004
69.120621 -277.05542 1004
70.846191 -277.05542 1004
72.571762 -277.05542 1004
74.223328 -276.77948 1003
75.947182 -276.77948 1003
77.748474 -277.05542 1004
79.474045 -277.05542 1004
81.199615 -277.05542 1004
82.925186 -277.05542 1004
84.650757 -277.05542 1004
86.376328 -277.05542 1004
88.101898 -277.05542 1004
89.916939 -277.33139 1005
91.55304 -277.05542 1004
93.27861 -277.05542 1004
95.004181 -277.05542 1004
96.729752 -277.05542 1004
98.553383 -277.33139 1005
100.28067 -277.33139 1005
102.10947 -277.60733 1006
103.83848 -277.60733 1006
105.56748 -277.60733 1006
107.40314 -277.88327 1007
109.13387 -277.88327 1007
110.75451 -277.60733 1006
112.3717 -277.33139 1005
114.09899 -277.33139 1005
115.82628 -277.33139 1005
117.4366 -277.05542 1004
119.04349 -276.77948 1003
120.76734 -276.77948 1003
122.4912 -276.77948 1003
124.21504 -276.77948 1003
126.06445 -277.05542 1004
127.66275 -276.77948 1003
129.51559 -277.05542 1004
131.11046 -276.77948 1003
132.8343 -276.77948 1003
134.55815 -276.77948 1003
136.14612 -276.50351 1002
137.86826 -276.50351 1002
139.59039 -276.50351 1002
141.31253 -276.50351 1002
143.03465 -276.50351 1002
144.75679 -276.50351 1002
146.47893 -276.50351 1002
148.34897 -276.77948 1003
150.07283 -276.77948 1003
151.94801 -277.05542 1004
153.67358 -277.05542 1004
155.55394 -277.33139 1005
157.28122 -277.33139 1005
159.00851 -277.33139 1005
160.73581 -277.33139 1005
162.46309 -277.33139 1005
164.19038 -277.33139 1005
166.08276 -277.60733 1006
167.81177 -277.60733 1006
169.54077 -277.60733 1006
171.26979 -277.60733 1006
172.99879 -277.60733 1006
174.7278 -277.60733 1006
176.2814 -277.33139 1005
178.0087 -277.33139 1005
179.73599 -277.33139 1005
181.10216 -276.77948 1003
182.82602 -276.77948 1003
184.36586 -276.50351 1002
186.088 -276.50351 1002
187.6227 -276.22757 1001
189.15396 -275.95163 1000
190.87265 -275.95163 1000
192.59135 -275.95163 1000
194.50435 -276.22757 1001
196.42079 -276.50351 1002
198.34068 -276.77948 1003
200.06453 -276.77948 1003
201.78839 -276.77948 1003
203.71513 -277.05542 1004
205.4407 -277.05542 1004
207.16628 -277.05542 1004
208.89185 -277.05542 1004
210.61742 -277.05542 1004
212.1315 -276.77948 1003
213.85535 -276.77948 1003
215.57921 -276.77948 1003
217.30305 -276.77948 1003
219.02692 -276.77948 1003
220.75076 -276.77948 1003
222.47461 -276.77948 1003
224.19847 -276.77948 1003
225.92232 -276.77948 1003
227.64616 -276.77948 1003
229.37003 -276.77948 1003
230.86346 -276.50351 1002
232.58559 -276.50351 1002
233.84006 -275.95163 1000
235.55875 -275.95163 1000
237.27745 -275.95163 1000
238.99614 -275.95163 1000
240.47411 -275.67566 999
242.19109 -275.67566 999
243.90807 -275.67566 999
245.62505 -275.67566 999
247.34203 -275.67566 999
249.30832 -275.95163 1000
251.02701 -275.95163 1000
252.74571 -275.95163 1000
254.4644 -275.95163 1000
256.18311 -275.95163 1000
257.90179 -275.95163 1000
259.62048 -275.95163 1000
261.3392 -275.95163 1000
262.79483 -275.67566 999
264.51181 -275.67566 999
265.96228 -275.39972 998
267.67755 -275.39972 998
269.39282 -275.39972 998
271.3797 -275.67566 999
273.09668 -275.67566 999
274.81366 -275.67566 999
276.53064 -275.67566 999
278.24762 -275.67566 999
279.9646 -275.67566 999
281.68158 -275.67566 999
283.11487 -275.39972 998
284.83014 -275.39972 998
286.54541 -275.39972 998
288.26065 -275.39972 998
289.97592 -275.39972 998
291.69116 -275.39972 998
293.40643 -275.39972 998
295.1217 -275.39972 998
296.83694 -275.39972 998
298.55222 -275.39972 998
300.26746 -275.39972 998
302.28531 -275.67566 999
304.30658 -275.95163 1000
462.33722 -412.27173 1494
464.90494 -412.27173 1494
467.47269 -412.27173 1494
470.04041 -412.27173 1494
472.60815 -412.27173 1494
475.17587 -412.27173 1494
477.74362 -412.27173 1494
480.31134 -412.27173 1494
482.87906 -412.27173 1494
485.44681 -412.27173 1494
488.01453 -412.27173 1494
490.58228 -412.27173 1494
493.14999 -412.27173 1494
495.71774 -412.27173 1494
498.28546 -412.27173 1494
500.85321 -412.27173 1494
504.43185 -413.09955 1497
507.00473 -413.09955 1497
509.57761 -413.09955 1497
512.15051 -413.09955 1497
514.72339 -413.09955 1497
517.29626 -413.09955 1497
518.82733 -412.27173 1494
522.44208 -413.09955 1497
525.01495 -413.09955 1497
527.58783 -413.09955 1497
529.09827 -412.27173 1494
530.95428 -411.71982 1492
533.51855 -411.71982 1492
536.08289 -411.71982 1492
538.64716 -411.71982 1492
541.21143 -411.71982 1492
543.77576 -411.71982 1492
546.34003 -411.71982 1492
548.90436 -411.71982 1492
552.20782 -412.27173 1494
554.77557 -412.27173 1494
557.34332 -412.27173 1494
559.91101 -412.27173 1494
562.47876 -412.27173 1494
565.04651 -412.27173 1494
567.6142 -412.27173 1494
570.18195 -412.27173 1494
572.74969 -412.27173 1494
574.5473 -411.71982 1492
577.11157 -411.71982 1492
579.67584 -411.71982 1492
583.02063 -412.27173 1494
584.80444 -411.71982 1492
586.58136 -411.16791 1490
589.14221 -411.16791 1490
592.49731 -411.71982 1492
595.06165 -411.71982 1492
598.427 -412.27173 1494
600.99475 -412.27173 1494
603.56244 -412.27173 1494
605.31879 -411.71982 1492
607.88312 -411.71982 1492
610.44739 -411.71982 1492
613.01172 -411.71982 1492
616.40112 -412.27173 1494
618.96887 -412.27173 1494
621.53656 -412.27173 1494
625.35754 -413.09955 1497
627.93048 -413.09955 1497
630.50336 -413.09955 1497
633.922 -413.65149 1499
636.49835 -413.65149 1499
638.22198 -413.09955 1497
640.79492 -413.09955 1497
643.3678 -413.09955 1497
645.94067 -413.09955 1497
647.21393 -412.27173 1494
649.78162 -412.27173 1494
652.34937 -412.27173 1494
654.04041 -411.71982 1492
657.48486 -412.27173 1494
661.37799 -413.09955 1497
663.95087 -413.09955 1497
666.5238 -413.09955 1497
669.09668 -413.09955 1497
672.56689 -413.65149 1499
676.04401 -414.20337 1501
678.62378 -414.20337 1501
681.20355 -414.20337 1501
683.78333 -414.20337 1501
685.44849 -413.65149 1499
688.94281 -414.20337 1501
690.60114 -413.65149 1499
693.17749 -413.65149 1499
695.75378 -413.65149 1499
697.39844 -413.09955 1497
699.97131 -413.09955 1497
702.54419 -413.09955 1497
705.11713 -413.09955 1497
707.69 -413.09955 1497
710.26288 -413.09955 1497
713.78809 -413.65149 1499
715.40863 -413.09955 1497
717.98157 -413.09955 1497
720.55444 -413.09955 1497
723.12732 -413.09955 1497
725.7002 -413.09955 1497
728.27307 -413.09955 1497
730.84595 -413.09955 1497
733.41888 -413.09955 1497
735.99176 -413.09955 1497
738.56464 -413.09955 1497
741.13751 -413.09955 1497
742.21997 -412.27173 1494
744.78772 -412.27173 1494
748.8562 -413.09955 1497
749.92316 -412.27173 1494
752.49091 -412.27173 1494
755.05865 -412.27173 1494
757.6264 -412.27173 1494
760.19409 -412.27173 1494
762.76184 -412.27173 1494
765.32959 -412.27173 1494
767.89728 -412.27173 1494
770.46503 -412.27173 1494
774.58508 -413.09955 1497
777.15796 -413.09955 1497
778.16821 -412.27173 1494
779.69086 -411.71982 1492
782.25513 -411.71982 1492
784.8194 -411.71982 1492
-678.10516 -414.6402 1512
-676.40002 -415.18863 1514
-673.79791 -415.18863 1514
-671.1958 -415.18863 1514
-667.71051 -414.6402 1512
-665.11182 -414.6402 1512
-662.51312 -414.6402 1512
-659.91449 -414.6402 1512
-658.18524 -415.18863 1514
-654.71716 -414.6402 1512
-652.11847 -414.6402 1512
-648.66064 -414.09171 1510
-646.06543 -414.09171 1510
-644.32245 -414.6402 1512
-642.57263 -415.18863 1514
-639.97052 -415.18863 1514
-637.36841 -415.18863 1514
-633.9278 -414.6402 1512
-632.16418 -415.18863 1514
-629.56207 -415.18863 1514
-626.95996 -415.18863 1514
-624.35791 -415.18863 1514
-621.7558 -415.18863 1514
-619.15369 -415.18863 1514
-616.55157 -415.18863 1514
-613.94946 -415.18863 1514
-611.34735 -415.18863 1514
-607.9411 -414.6402 1512
-606.14313 -415.18863 1514
-604.737 -416.01135 1517
-602.92352 -416.55981 1519
-599.52246 -416.01135 1517
-596.91522 -416.01135 1517
-594.30792 -416.01135 1517
-592.48077 -416.55981 1519
-589.09338 -416.01135 1517
-587.25934 -416.55981 1519
-583.87891 -416.01135 1517
-580.12207 -415.18863 1514
-576.75708 -414.6402 1512
-576.05713 -416.01135 1517
-573.44983 -416.01135 1517
-570.84259 -416.01135 1517
-568.98444 -416.55981 1519
-566.37378 -416.55981 1519
-564.50537 -417.10828 1521
-561.89124 -417.10828 1521
-560.01251 -417.65674 1523
-558.49286 -418.47943 1526
-555.87018 -418.47943 1526
-553.24744 -418.47943 1526
-550.62469 -418.47943 1526
-546.92462 -417.65674 1523
-545.37921 -418.47943 1526
-541.68945 -417.65674 1523
-538.36401 -417.10828 1521
-535.04535 -416.55981 1519
-532.43469 -416.55981 1519
-529.82397 -416.55981 1519
-527.21326 -416.55981 1519
-525.29333 -417.10828 1521
-522.6792 -417.10828 1521
-520.06506 -417.10828 1521
-517.45093 -417.10828 1521
-514.83679 -417.10828 1521
-512.22266 -417.10828 1521
-508.93839 -416.55981 1519
-506.32767 -416.55981 1519
-503.71698 -416.55981 1519
-501.10626 -416.55981 1519
-498.49557 -416.55981 1519
-496.53781 -417.10828 1521
-493.92368 -417.10828 1521
-491.30954 -417.10828 1521
-488.6954 -417.10828 1521
-486.08127 -417.10828 1521
-483.46713 -417.10828 1521
-480.853 -417.10828 1521
-477.60999 -416.55981 1519
-474.3739 -416.01135 1517
-471.76663 -416.01135 1517
-468.23154 -415.18863 1514
-465.62943 -415.18863 1514
-462.41568 -414.6402 1512
-459.81702 -414.6402 1512
-457.21835 -414.6402 1512
-454.61969 -414.6402 1512
-452.02103 -414.6402 1512
-449.42233 -414.6402 1512
-446.23264 -414.09171 1510
-443.63739 -414.09171 1510
-441.62634 -414.6402 1512
-439.02768 -414.6402 1512
-436.42902 -414.6402 1512
-434.40421 -415.18863 1514
-431.23166 -414.6402 1512
-428.633 -414.6402 1512
-426.03433 -414.6402 1512
-423.43567 -414.6402 1512
-421.39368 -415.18863 1514
-418.23834 -414.6402 1512
-415.63965 -414.6402 1512
-413.04099 -414.6402 1512
-410.44232 -414.6402 1512
-407.84366 -414.6402 1512
-405.245 -414.6402 1512
-402.64633 -414.6402 1512
-400.04764 -414.6402 1512
-397.44897 -414.6402 1512
-394.85031 -414.6402 1512
-392.25165 -414.6402 1512
-390.1684 -415.18863 1514
-387.05432 -414.6402 1512
-384.45563 -414.6402 1512
-381.35187 -414.09171 1510
-378.75662 -414.09171 1510
-376.16141 -414.09171 1510
-374.06097 -414.6402 1512
-371.46231 -414.6402 1512
-368.3757 -414.09171 1510
-224.05214 -277.24948 1011
-222.53444 -277.52371 1012
-220.57693 -277.24948 1011
-218.83932 -277.24948 1011
-216.67226 -276.70102 1009
-214.9381 -276.70102 1009
-212.99261 -276.42679 1008
-211.26018 -276.42679 1008
-209.31985 -276.15256 1007
-207.58914 -276.15256 1007
-205.65399 -275.8783 1006
-203.92499 -275.8783 1006
-202.19597 -275.8783 1006
-200.46696 -275.8783 1006
-198.73796 -275.8783 1006
-197.00896 -275.8783 1006
-195.27994 -275.8783 1006
-193.55093 -275.8783 1006
-191.63124 -275.6041 1005
-190.09291 -275.8783 1006
-188.36391 -275.8783 1006
-186.82042 -276.15256 1007
-185.08969 -276.15256 1007
-183.35896 -276.15256 1007
-181.44788 -275.8783 1006
-179.71887 -275.8783 1006
-177.81293 -275.6041 1005
-176.08563 -275.6041 1005
-174.18486 -275.32986 1004
-172.45929 -275.32986 1004
-170.56366 -275.05563 1003
-168.8398 -275.05563 1003
-167.11595 -275.05563 1003
-165.55701 -275.32986 1004
-163.83144 -275.32986 1004
-162.26732 -275.6041 1005
-160.54004 -275.6041 1005
-158.81274 -275.6041 1005
-157.08545 -275.6041 1005
-155.35817 -275.6041 1005
-153.63087 -275.6041 1005
-151.90358 -275.6041 1005
-150.32573 -275.8783 1006
-148.59673 -275.8783 1006
-146.86771 -275.8783 1006
-145.28297 -276.15256 1007
-143.4097 -275.8783 1006
-141.68069 -275.8783 1006
-139.95168 -275.8783 1006
-138.22267 -275.8783 1006
-136.49367 -275.8783 1006
-134.76466 -275.8783 1006
-133.03564 -275.8783 1006
-131.30664 -275.8783 1006
-129.70642 -276.15256 1007
-127.9757 -276.15256 1007
-126.37035 -276.42679 1008
-124.6379 -276.42679 1008
-122.90546 -276.42679 1008
-121.173 -276.42679 1008
-119.44056 -276.42679 1008
-117.70811 -276.42679 1008
-115.86061 -276.15256 1007
-114.12988 -276.15256 1007
-112.39916 -276.15256 1007
-110.77834 -276.42679 1008
-109.04589 -276.42679 1008
-107.31345 -276.42679 1008
-105.581 -276.42679 1008
-103.84855 -276.42679 1008
-102.0148 -276.15256 1007
-100.28408 -276.15256 1007
-98.553352 -276.15256 1007
-96.822624 -276.15256 1007
-94.997459 -275.8783 1006
-93.268456 -275.8783 1006
-91.539444 -275.8783 1006
-89.899719 -276.15256 1007
-88.168991 -276.15256 1007
-86.438263 -276.15256 1007
-84.707535 -276.15256 1007
-82.976807 -276.15256 1007
-81.165398 -275.8783 1006
-79.436386 -275.8783 1006
-77.630142 -275.6041 1005
-75.902847 -275.6041 1005
-74.17556 -275.6041 1005
-72.448273 -275.6041 1005
-70.720985 -275.6041 1005
-69.06234 -275.8783 1006
-67.333328 -275.8783 1006
-65.604324 -275.8783 1006
-63.875317 -275.8783 1006
-62.146309 -275.8783 1006
-60.417301 -275.8783 1006
-58.68829 -275.8783 1006
-56.959282 -275.8783 1006
-55.230274 -275.8783 1006
-53.448086 -275.6041 1005
-51.720795 -275.6041 1005
-49.993507 -275.6041 1005
-48.266216 -275.6041 1005
-46.538925 -275.6041 1005
-44.811638 -275.6041 1005
-43.084347 -275.6041 1005
-41.357059 -275.6041 1005
-39.669201 -275.8783 1006
-37.940193 -275.8783 1006
-36.211185 -275.8783 1006
-34.447899 -275.6041 1005
-32.720612 -275.6041 1005
-30.993322 -275.6041 1005
-29.266033 -275.6041 1005
-27.538744 -275.6041 1005
-25.811455 -275.6041 1005
-24.084166 -275.6041 1005
-22.379122 -275.8783 1006
-20.670641 -276.15256 1007
-18.958721 -276.42679 1008
-17.226274 -276.42679 1008
-15.47846 -276.15256 1007
-13.747732 -276.15256 1007
-12.017006 -276.15256 1007
-10.276064 -275.8783 1006
-8.5470562 -275.8783 1006
-6.8248253 -276.15256 1007
-5.0940981 -276.15256 1007
-3.3633714 -276.15256 1007
-1.6326445 -276.15256 1007
0.098179668 -276.42679 1008
1.8306252 -276.42679 1008
3.5666056 -276.70102 1009
5.3007698 -276.70102 1009
7.034934 -276.70102 1009
8.7690983 -276.70102 1009
10.503263 -276.70102 1009
12.237427 -276.70102 1009
13.971591 -276.70102 1009
15.705756 -276.70102 1009
17.43992 -276.70102 1009
19.174084 -276.70102 1009
20.92897 -276.97525 1010
22.642412 -276.70102 1009
24.400736 -276.97525 1010
26.13662 -276.97525 1010
27.872501 -276.97525 1010
29.579069 -276.70102 1009
31.313234 -276.70102 1009
33.047398 -276.70102 1009
34.781563 -276.70102 1009
36.515728 -276.70102 1009
38.211983 -276.42679 1008
39.944427 -276.42679 1008
41.635529 -276.15256 1007
43.366253 -276.15256 1007
45.052197 -275.8783 1006
46.781204 -275.8783 1006
48.510216 -275.8783 1006
50.189281 -275.6041 1005
51.916573 -275.6041 1005
53.590485 -275.32986 1004
55.316055 -275.32986 1004
57.041626 -275.32986 1004
58.70866 -275.05563 1003
60.432514 -275.05563 1003
62.156364 -275.05563 1003
63.880219 -275.05563 1003
65.538666 -274.78137 1002
67.260796 -274.78137 1002
68.982933 -274.78137 1002
70.705063 -274.78137 1002
72.4272 -274.78137 1002
74.14933 -274.78137 1002
75.871468 -274.78137 1002
77.593597 -274.78137 1002
79.394882 -275.05563 1003
81.118736 -275.05563 1003
82.84259 -275.05563 1003
84.566444 -275.05563 1003
86.290291 -275.05563 1003
88.101898 -275.32986 1004
89.827469 -275.32986 1004
91.461853 -275.05563 1003
93.185699 -275.05563 1003
94.909554 -275.05563 1003
96.729752 -275.32986 1004
98.455322 -275.32986 1004
100.28067 -275.6041 1005
102.00797 -275.6041 1005
103.83848 -275.8783 1006
105.56748 -275.8783 1006
107.40314 -276.15256 1007
109.13387 -276.15256 1007
110.75451 -275.8783 1006
112.3717 -275.6041 1005
114.09899 -275.6041 1005
115.71103 -275.32986 1004
117.31964 -275.05563 1003
119.04349 -275.05563 1003
120.76734 -275.05563 1003
122.36906 -274.78137 1002
124.21504 -275.05563 1003
125.9389 -275.05563 1003
127.66275 -275.05563 1003
129.3866 -275.05563 1003
131.11046 -275.05563 1003
132.70186 -274.78137 1002
134.424 -274.78137 1002
136.01025 -274.50717 1001
137.73067 -274.50717 1001
139.45108 -274.50717 1001
141.17149 -274.50717 1001
142.89191 -274.50717 1001
144.61234 -274.50717 1001
146.33275 -274.50717 1001
148.05316 -274.50717 1001
149.92319 -274.78137 1002
151.64532 -274.78137 1002
153.36746 -274.78137 1002
155.24438 -275.05563 1003
156.96823 -275.05563 1003
158.69209 -275.05563 1003
160.57587 -275.32986 1004
162.30144 -275.32986 1004
164.02701 -275.32986 1004
165.75258 -275.32986 1004
167.47815 -275.32986 1004
169.20372 -275.32986 1004
170.92929 -275.32986 1004
172.65486 -275.32986 1004
174.38043 -275.32986 1004
176.106 -275.32986 1004
177.83157 -275.32986 1004
179.55714 -275.32986 1004
181.10216 -275.05563 1003
182.64372 -274.78137 1002
184.36586 -274.78137 1002
185.90228 -274.50717 1001
187.43526 -274.23294 1000
188.96481 -273.95868 999
190.68179 -273.95868 999
192.39876 -273.95868 999
194.31004 -274.23294 1000
196.02875 -274.23294 1000
197.94518 -274.50717 1001
199.86507 -274.78137 1002
201.58719 -274.78137 1002
203.30933 -274.78137 1002
205.2361 -275.05563 1003
206.95995 -275.05563 1003
208.68379 -275.05563 1003
210.40765 -275.05563 1003
211.92 -274.78137 1002
213.64212 -274.78137 1002
215.36426 -274.78137 1002
217.0864 -274.78137 1002
218.80853 -274.78137 1002
220.53065 -274.78137 1002
222.25279 -274.78137 1002
223.97493 -274.78137 1002
225.69707 -274.78137 1002
227.41919 -274.78137 1002
229.14133 -274.78137 1002
230.86346 -274.78137 1002
232.35349 -274.50717 1001
233.84006 -274.23294 1000
235.55875 -274.23294 1000
237.04016 -273.95868 999
238.75714 -273.95868 999
240.23341 -273.68445 998
241.94867 -273.68445 998
243.66393 -273.68445 998
245.3792 -273.68445 998
247.09445 -273.68445 998
248.80971 -273.68445 998
250.77597 -273.95868 999
252.24022 -273.68445 998
253.95549 -273.68445 998
255.67075 -273.68445 998
257.38599 -273.68445 998
259.10126 -273.68445 998
260.81653 -273.68445 998
262.53177 -273.68445 998
263.98224 -273.41025 997
265.6958 -273.41025 997
267.67755 -273.68445 998
269.39282 -273.68445 998
271.10806 -273.68445 998
272.82333 -273.68445 998
274.53857 -273.68445 998
276.25385 -273.68445 998
277.96912 -273.68445 998
279.68436 -273.68445 998
281.39963 -273.68445 998
282.83118 -273.41025 997
284.54474 -273.41025 997
286.25827 -273.41025 997
287.68295 -273.13599 996
289.68533 -273.41025 997
291.69116 -273.68445 998
293.40643 -273.68445 998
294.82596 -273.41025 997
296.83694 -273.68445 998
298.55222 -273.68445 998
300.26746 -273.68445 998
302.28531 -273.95868 999
304.30658 -274.23294 1000
461.0994 -408.60706 1490
463.66025 -408.60706 1490
466.2211 -408.60706 1490
469.41122 -409.15552 1492
471.97549 -409.15552 1492
474.53979 -409.15552 1492
477.1041 -409.15552 1492
479.6684 -409.15552 1492
482.2327 -409.15552 1492
484.14709 -408.60706 1490
487.36127 -409.15552 1492
489.92557 -409.15552 1492
492.48987 -409.15552 1492
494.39053 -408.60706 1490
497.61844 -409.15552 1492
500.18274 -409.15552 1492
502.74704 -409.15552 1492
505.98865 -409.70398 1494
508.5564 -409.70398 1494
512.15051 -410.52667 1497
513.69183 -409.70398 1494
516.25958 -409.70398 1494
518.82733 -409.70398 1494
521.39508 -409.70398 1494
523.96277 -409.70398 1494
526.53052 -409.70398 1494
528.38995 -409.15552 1492
530.95428 -409.15552 1492
532.80341 -408.60706 1490
536.08289 -409.15552 1492
538.64716 -409.15552 1492
541.21143 -409.15552 1492
543.04681 -408.60706 1490
546.34003 -409.15552 1492
548.90436 -409.15552 1492
551.46863 -409.15552 1492
554.77557 -409.70398 1494
556.59723 -409.15552 1492
559.1615 -409.15552 1492
561.72583 -409.15552 1492
564.2901 -409.15552 1492
566.85437 -409.15552 1492
569.4187 -409.15552 1492
571.98297 -409.15552 1492
574.5473 -409.15552 1492
576.33795 -408.60706 1490
579.67584 -409.15552 1492
582.24017 -409.15552 1492
584.80444 -409.15552 1492
586.58136 -408.60706 1490
589.14221 -408.60706 1490
591.70306 -408.60706 1490
594.26398 -408.60706 1490
596.82483 -408.60706 1490
599.38568 -408.60706 1490
601.94653 -408.60706 1490
604.50739 -408.60706 1490
607.06824 -408.60706 1490
610.44739 -409.15552 1492
612.18994 -408.60706 1490
615.57599 -409.15552 1492
618.14026 -409.15552 1492
621.53656 -409.70398 1494
624.10431 -409.70398 1494
627.93048 -410.52667 1497
630.50336 -410.52667 1497
633.922 -411.07516 1499
636.49835 -411.07516 1499
638.22198 -410.52667 1497
640.79492 -410.52667 1497
643.3678 -410.52667 1497
646.80365 -411.07516 1499
648.51355 -410.52667 1497
649.78162 -409.70398 1494
652.34937 -409.70398 1494
654.04041 -409.15552 1492
657.48486 -409.70398 1494
661.37799 -410.52667 1497
662.6203 -409.70398 1494
665.18805 -409.70398 1494
669.09668 -410.52667 1497
672.56689 -411.07516 1499
675.14319 -411.07516 1499
677.71954 -411.07516 1499
680.29584 -411.07516 1499
682.87219 -411.07516 1499
685.44849 -411.07516 1499
688.02484 -411.07516 1499
689.67975 -410.52667 1497
692.25269 -410.52667 1497
694.82556 -410.52667 1497
696.00079 -409.70398 1494
697.63342 -409.15552 1492
701.13629 -409.70398 1494
703.70398 -409.70398 1494
706.27173 -409.70398 1494
708.83948 -409.70398 1494
712.83575 -410.52667 1497
715.40863 -410.52667 1497
716.54266 -409.70398 1494
720.55444 -410.52667 1497
723.12732 -410.52667 1497
724.24585 -409.70398 1494
726.8136 -409.70398 1494
729.38135 -409.70398 1494
731.94904 -409.70398 1494
734.51678 -409.70398 1494
737.08453 -409.70398 1494
739.65228 -409.70398 1494
741.22644 -409.15552 1492
743.79071 -409.15552 1492
746.35498 -409.15552 1492
748.91931 -409.15552 1492
751.48358 -409.15552 1492
754.04791 -409.15552 1492
756.61218 -409.15552 1492
760.19409 -409.70398 1494
762.76184 -409.70398 1494
765.32959 -409.70398 1494
767.89728 -409.70398 1494
770.46503 -409.70398 1494
773.03278 -409.70398 1494
775.60052 -409.70398 1494
777.12653 -409.15552 1492
778.64563 -408.60706 1490
781.20648 -408.60706 1490
781.66333 -407.51013 1486
-678.10516 -412.0415 1512
-675.50647 -412.0415 1512
-672.90784 -412.0415 1512
-670.30914 -412.0415 1512
-667.71051 -412.0415 1512
-665.11182 -412.0415 1512
-662.51312 -412.0415 1512
-659.91449 -412.0415 1512
-657.3158 -412.0415 1512
-653.85114 -411.49646 1510
-651.25592 -411.49646 1510
-647.80151 -410.95145 1508
-645.20972 -410.95145 1508
-643.47021 -411.49646 1510
-640.875 -411.49646 1510
-639.12512 -412.0415 1512
-635.68451 -411.49646 1510
-633.9278 -412.0415 1512
-631.3291 -412.0415 1512
-628.73047 -412.0415 1512
-626.13177 -412.0415 1512
-624.35791 -412.58652 1514
-621.7558 -412.58652 1514
-618.33582 -412.0415 1512
-614.92267 -411.49646 1510
-613.13843 -412.0415 1512
-609.73224 -411.49646 1510
-607.13696 -411.49646 1510
-605.34247 -412.0415 1512
-604.737 -413.40408 1517
-602.1297 -413.40408 1517
-598.33685 -412.58652 1514
-595.73474 -412.58652 1514
-594.30792 -413.40408 1517
-591.70068 -413.40408 1517
-589.09338 -413.40408 1517
-586.48615 -413.40408 1517
-581.95441 -412.0415 1512
-578.58942 -411.49646 1510
-575.23126 -410.95145 1508
-574.15845 -412.0415 1512
-571.55975 -412.0415 1512
-568.96106 -412.0415 1512
-567.11157 -412.58652 1514
-565.62805 -413.40408 1517
-563.76306 -413.9491 1519
-561.89124 -414.49414 1521
-560.01251 -415.03915 1523
-557.3949 -415.03915 1523
-554.77734 -415.03915 1523
-552.15979 -415.03915 1523
-549.54218 -415.03915 1523
-546.20642 -414.49414 1521
-543.59229 -414.49414 1521
-540.26678 -413.9491 1519
-537.65607 -413.9491 1519
-534.34094 -413.40408 1517
-532.43469 -413.9491 1519
-529.1264 -413.40408 1517
-527.21326 -413.9491 1519
-524.60254 -413.9491 1519
-521.99188 -413.9491 1519
-519.38116 -413.9491 1519
-516.77045 -413.9491 1519
-513.48285 -413.40408 1517
-511.54907 -413.9491 1519
-508.93839 -413.9491 1519
-506.32767 -413.9491 1519
-503.05377 -413.40408 1517
-500.4465 -413.40408 1517
-497.83923 -413.40408 1517
-495.88489 -413.9491 1519
-493.27417 -413.9491 1519
-491.30954 -414.49414 1521
-488.05276 -413.9491 1519
-484.80295 -413.40408 1517
-482.19568 -413.40408 1517
-479.58841 -413.40408 1517
-476.98114 -413.40408 1517
-473.43576 -412.58652 1514
-470.83365 -412.58652 1514
-467.61304 -412.0415 1512
-465.01434 -412.0415 1512
-461.80405 -411.49646 1510
-459.20883 -411.49646 1510
-456.61359 -411.49646 1510
-454.01834 -411.49646 1510
-451.42313 -411.49646 1510
-448.2334 -410.95145 1508
-445.64163 -410.95145 1508
-443.04984 -410.95145 1508
-441.04218 -411.49646 1510
-438.44693 -411.49646 1510
-436.42902 -412.0415 1512
-433.83032 -412.0415 1512
-431.23166 -412.0415 1512
-428.633 -412.0415 1512
-426.03433 -412.0415 1512
-422.87555 -411.49646 1510
-420.83701 -412.0415 1512
-417.68509 -411.49646 1510
-415.08987 -411.49646 1510
-412.49463 -411.49646 1510
-409.89941 -411.49646 1510
-407.84366 -412.0415 1512
-405.245 -412.0415 1512
-402.64633 -412.0415 1512
-399.51849 -411.49646 1510
-396.92325 -411.49646 1510
-394.328 -411.49646 1510
-391.73279 -411.49646 1510
-389.65298 -412.0415 1512
-386.54233 -411.49646 1510
-383.94708 -411.49646 1510
-380.84677 -410.95145 1508
-378.25497 -410.95145 1508
-375.66321 -410.95145 1508
-373.07141 -410.95145 1508
-370.47961 -410.95145 1508
-367.15591 -410.13391 1505
-223.83054 -275.23935 1010
-222.09465 -275.23935 1010
-220.35876 -275.23935 1010
-218.40642 -274.96686 1009
-216.45752 -274.69434 1008
-214.51204 -274.42181 1007
-212.57002 -274.14929 1006
-210.84102 -274.14929 1006
-209.112 -274.14929 1006
-207.17685 -273.8768 1005
-205.44955 -273.8768 1005
-203.51956 -273.60428 1004
-201.99498 -273.8768 1005
-200.26768 -273.8768 1005
-198.54041 -273.8768 1005
-196.81311 -273.8768 1005
-195.08583 -273.8768 1005
-193.35854 -273.8768 1005
-191.63124 -273.8768 1005
-189.90396 -273.8768 1005
-188.17667 -273.8768 1005
-186.6349 -274.14929 1006
-184.9059 -274.14929 1006
-183.17688 -274.14929 1006
-181.2675 -273.8768 1005
-179.54022 -273.8768 1005
-177.81293 -273.8768 1005
-175.91043 -273.60428 1004
-174.18486 -273.60428 1004
-172.28751 -273.33176 1003
-170.56366 -273.33176 1003
-168.8398 -273.33176 1003
-167.11595 -273.33176 1003
-165.39211 -273.33176 1003
-163.83144 -273.60428 1004
-162.26732 -273.8768 1005
-160.54004 -273.8768 1005
-158.81274 -273.8768 1005
-156.92915 -273.60428 1004
-155.20358 -273.60428 1004
-153.63087 -273.8768 1005
-151.90358 -273.8768 1005
-150.1763 -273.8768 1005
-148.44901 -273.8768 1005
-146.72173 -273.8768 1005
-144.99443 -273.8768 1005
-143.26714 -273.8768 1005
-141.53986 -273.8768 1005
-139.81256 -273.8768 1005
-137.94788 -273.60428 1004
-136.22231 -273.60428 1004
-134.63069 -273.8768 1005
-133.03564 -274.14929 1006
-131.30664 -274.14929 1006
-129.57764 -274.14929 1006
-127.9757 -274.42181 1007
-126.24497 -274.42181 1007
-124.6379 -274.69434 1008
-122.90546 -274.69434 1008
-121.0528 -274.42181 1007
-119.32207 -274.42181 1007
-117.47458 -274.14929 1006
-115.74557 -274.14929 1006
-113.90322 -273.8768 1005
-112.28754 -274.14929 1006
-110.66844 -274.42181 1007
-108.93771 -274.42181 1007
-107.20699 -274.42181 1007
-105.37151 -274.14929 1006
-103.6425 -274.14929 1006
-101.9135 -274.14929 1006
-100.0849 -273.8768 1005
-98.357613 -273.8768 1005
-96.534172 -273.60428 1004
-94.714172 -273.33176 1003
-92.990318 -273.33176 1003
-91.266472 -273.33176 1003
-89.631889 -273.60428 1004
-87.906319 -273.60428 1004
-86.266586 -273.8768 1005
-84.539299 -273.8768 1005
-82.812012 -273.8768 1005
-81.084717 -273.8768 1005
-79.35743 -273.8768 1005
-77.552895 -273.60428 1004
-75.827324 -273.60428 1004
-74.101753 -273.60428 1004
-72.448273 -273.8768 1005
-70.720985 -273.8768 1005
-68.99369 -273.8768 1005
-67.266403 -273.8768 1005
-65.539116 -273.8768 1005
-63.811825 -273.8768 1005
-62.084534 -273.8768 1005
-60.357246 -273.8768 1005
-58.68829 -274.14929 1006
-56.902668 -273.8768 1005
-55.175373 -273.8768 1005
-53.394901 -273.60428 1004
-51.669331 -273.60428 1004
-49.94376 -273.60428 1004
-48.218189 -273.60428 1004
-46.446312 -273.33176 1003
-44.722462 -273.33176 1003
-42.998608 -273.33176 1003
-41.274757 -273.33176 1003
-39.590336 -273.60428 1004
-37.864765 -273.60428 1004
-36.139194 -273.60428 1004
-34.379349 -273.33176 1003
-32.655495 -273.33176 1003
-30.931643 -273.33176 1003
-29.20779 -273.33176 1003
-27.48394 -273.33176 1003
-25.760088 -273.33176 1003
-24.036238 -273.33176 1003
-22.334631 -273.60428 1004
-20.60906 -273.60428 1004
-18.921106 -274.14929 1006
-17.192097 -274.14929 1006
-15.447719 -273.8768 1005
-13.720428 -273.8768 1005
-11.993138 -273.8768 1005
-10.255634 -273.60428 1004
-8.5300636 -273.60428 1004
-6.8112702 -273.8768 1005
-5.0839806 -273.8768 1005
-3.3566916 -273.8768 1005
-1.6310233 -274.14929 1006
0.098082267 -274.42181 1007
1.8288091 -274.42181 1007
3.5630708 -274.69434 1008
5.3007698 -274.96686 1009
7.0279617 -274.69434 1008
8.7604074 -274.69434 1008
10.492853 -274.69434 1008
12.225299 -274.69434 1008
13.957744 -274.69434 1008
15.69019 -274.69434 1008
17.422636 -274.69434 1008
19.155081 -274.69434 1008
20.908249 -274.96686 1009
22.642412 -274.96686 1009
24.376577 -274.96686 1009
26.110741 -274.96686 1009
27.844906 -274.96686 1009
29.579069 -274.96686 1009
31.313234 -274.96686 1009
33.047398 -274.96686 1009
34.747093 -274.69434 1008
36.515728 -274.96686 1009
38.211983 -274.69434 1008
39.9048 -274.42181 1007
41.594181 -274.14929 1006
43.323189 -274.14929 1006
45.007416 -273.8768 1005
46.688202 -273.60428 1004
48.413773 -273.60428 1004
50.139343 -273.60428 1004
51.813255 -273.33176 1003
53.537109 -273.33176 1003
55.26096 -273.33176 1003
56.98481 -273.33176 1003
58.650131 -273.05923 1002
60.372265 -273.05923 1002
62.094398 -273.05923 1002
63.816532 -273.05923 1002
65.473251 -272.78674 1001
67.193665 -272.78674 1001
68.914085 -272.78674 1001
70.634499 -272.78674 1001
72.354912 -272.78674 1001
74.14933 -273.05923 1002
75.871468 -273.05923 1002
77.516159 -272.78674 1001
79.315735 -273.05923 1002
81.037865 -273.05923 1002
82.759995 -273.05923 1002
84.482132 -273.05923 1002
86.204262 -273.05923 1002
88.014145 -273.33176 1003
89.648529 -273.05923 1002
91.370667 -273.05923 1002
93.092796 -273.05923 1002
94.814934 -273.05923 1002
96.633408 -273.33176 1003
98.455322 -273.60428 1004
100.18089 -273.60428 1004
102.00797 -273.8768 1005
103.73525 -273.8768 1005
105.56748 -274.14929 1006
107.40314 -274.42181 1007
109.13387 -274.42181 1007
110.75451 -274.14929 1006
112.3717 -273.8768 1005
113.98546 -273.60428 1004
115.71103 -273.60428 1004
117.4366 -273.60428 1004
119.04349 -273.33176 1003
120.76734 -273.33176 1003
122.36906 -273.05923 1002
124.21504 -273.33176 1003
125.9389 -273.33176 1003
127.66275 -273.33176 1003
129.3866 -273.33176 1003
130.97972 -273.05923 1002
132.70186 -273.05923 1002
134.28984 -272.78674 1001
135.87439 -272.51422 1000
137.59308 -272.51422 1000
139.31178 -272.51422 1000
140.88945 -272.2417 999
142.74916 -272.51422 1000
144.46786 -272.51422 1000
146.04037 -272.2417 999
147.90526 -272.51422 1000
149.62395 -272.51422 1000
151.49399 -272.78674 1001
153.2144 -272.78674 1001
155.0896 -273.05923 1002
156.81172 -273.05923 1002
158.53386 -273.05923 1002
160.256 -273.05923 1002
162.13979 -273.33176 1003
163.86365 -273.33176 1003
165.58749 -273.33176 1003
167.31134 -273.33176 1003
169.0352 -273.33176 1003
170.75905 -273.33176 1003
172.48291 -273.33176 1003
174.20676 -273.33176 1003
175.75519 -273.05923 1002
177.65446 -273.33176 1003
179.19946 -273.05923 1002
180.74104 -272.78674 1001
182.46146 -272.78674 1001
184.18187 -272.78674 1001
185.71657 -272.51422 1000
187.43526 -272.51422 1000
188.96481 -272.2417 999
190.68179 -272.2417 999
192.39876 -272.2417 999
194.11574 -272.2417 999
195.83272 -272.2417 999
197.74744 -272.51422 1000
199.46614 -272.51422 1000
201.18483 -272.51422 1000
203.10643 -272.78674 1001
204.82684 -272.78674 1001
206.54726 -272.78674 1001
208.26767 -272.78674 1001
209.98808 -272.78674 1001
211.7085 -272.78674 1001
213.42891 -272.78674 1001
214.9344 -272.51422 1000
216.65309 -272.51422 1000
218.3718 -272.51422 1000
220.31058 -272.78674 1001
222.03099 -272.78674 1001
223.7514 -272.78674 1001
225.47183 -272.78674 1001
227.19225 -272.78674 1001
228.91266 -272.78674 1001
230.63307 -272.78674 1001
232.12135 -272.51422 1000
233.6062 -272.2417 999
235.32318 -272.2417 999
237.04016 -272.2417 999
238.51816 -271.96918 998
240.23341 -271.96918 998
241.94867 -271.96918 998
243.66393 -271.96918 998
245.3792 -271.96918 998
247.09445 -271.96918 998
248.56039 -271.69669 997
250.52496 -271.96918 998
252.24022 -271.96918 998
253.701 -271.69669 997
255.41455 -271.69669 997
256.87018 -271.42416 996
258.84164 -271.69669 997
260.29382 -271.42416 996
262.26871 -271.69669 997
263.71747 -271.42416 996
265.42929 -271.42416 996
267.14111 -271.42416 996
269.12286 -271.69669 997
270.8364 -271.69669 997
272.54996 -271.69669 997
273.9884 -271.42416 996
275.97702 -271.69669 997
277.69058 -271.69669 997
279.68436 -271.96918 998
281.39963 -271.96918 998
282.54749 -271.42416 996
284.25931 -271.42416 996
285.97113 -271.42416 996
287.68295 -271.42416 996
289.39478 -271.42416 996
291.3989 -271.69669 997
293.11243 -271.69669 997
294.82596 -271.69669 997
296.83694 -271.96918 998
298.55222 -271.96918 998
300.26746 -271.96918 998
302.28531 -272.2417 999
304.30658 -272.51422 1000
459.86154 -404.95615 1486
463.03784 -405.50119 1488
465.59528 -405.50119 1488
468.78195 -406.0462 1490
471.3428 -406.0462 1490
473.90366 -406.0462 1490
476.46454 -406.0462 1490
479.02539 -406.0462 1490
481.58624 -406.0462 1490
484.14709 -406.0462 1490
486.70795 -406.0462 1490
489.2688 -406.0462 1490
491.82968 -406.0462 1490
494.39053 -406.0462 1490
496.95139 -406.0462 1490
499.51224 -406.0462 1490
502.74704 -406.59125 1492
505.31134 -406.59125 1492
508.5564 -407.13626 1494
511.12411 -407.13626 1494
513.69183 -407.13626 1494
516.25958 -407.13626 1494
518.82733 -407.13626 1494
521.39508 -407.13626 1494
523.96277 -407.13626 1494
526.53052 -407.13626 1494
528.38995 -406.59125 1492
530.24249 -406.0462 1490
532.80341 -406.0462 1490
535.36426 -406.0462 1490
537.92511 -406.0462 1490
540.48596 -406.0462 1490
543.04681 -406.0462 1490
545.60767 -406.0462 1490
548.16852 -406.0462 1490
550.72937 -406.0462 1490
554.0329 -406.59125 1492
555.85107 -406.0462 1490
558.41193 -406.0462 1490
560.97278 -406.0462 1490
563.53369 -406.0462 1490
566.09454 -406.0462 1490
569.4187 -406.59125 1492
571.21625 -406.0462 1490
573.7771 -406.0462 1490
576.33795 -406.0462 1490
578.8988 -406.0462 1490
581.45966 -406.0462 1490
584.02051 -406.0462 1490
586.58136 -406.0462 1490
588.35144 -405.50119 1488
591.70306 -406.0462 1490
594.26398 -406.0462 1490
596.82483 -406.0462 1490
599.38568 -406.0462 1490
601.13849 -405.50119 1488
603.69592 -405.50119 1488
607.06824 -406.0462 1490
609.62909 -406.0462 1490
612.18994 -406.0462 1490
614.75079 -406.0462 1490
618.14026 -406.59125 1492
620.70459 -406.59125 1492
624.10431 -407.13626 1494
627.93048 -407.9538 1497
630.50336 -407.9538 1497
633.07623 -407.9538 1497
636.49835 -408.49884 1499
638.22198 -407.9538 1497
640.79492 -407.9538 1497
643.3678 -407.9538 1497
645.94067 -407.9538 1497
648.51355 -407.9538 1497
649.78162 -407.13626 1494
652.34937 -407.13626 1494
654.91711 -407.13626 1494
658.80511 -407.9538 1497
661.37799 -407.9538 1497
663.95087 -407.9538 1497
665.18805 -407.13626 1494
667.75574 -407.13626 1494
671.66956 -407.9538 1497
674.24243 -407.9538 1497
677.71954 -408.49884 1499
679.38824 -407.9538 1497
681.96112 -407.9538 1497
683.16217 -407.13626 1494
687.10687 -407.9538 1497
688.29761 -407.13626 1494
689.94055 -406.59125 1492
692.50482 -406.59125 1492
695.06909 -406.59125 1492
696.69824 -406.0462 1490
699.25909 -406.0462 1490
702.76202 -406.59125 1492
706.27173 -407.13626 1494
708.83948 -407.13626 1494
712.83575 -407.9538 1497
713.97491 -407.13626 1494
716.54266 -407.13626 1494
719.11041 -407.13626 1494
721.6781 -407.13626 1494
724.24585 -407.13626 1494
725.84064 -406.59125 1492
728.40497 -406.59125 1492
729.98938 -406.0462 1490
732.55023 -406.0462 1490
736.09784 -406.59125 1492
736.68176 -405.50119 1488
739.2392 -405.50119 1488
741.79657 -405.50119 1488
745.35449 -406.0462 1490
748.91931 -406.59125 1492
750.4762 -406.0462 1490
754.04791 -406.59125 1492
756.61218 -406.59125 1492
759.17645 -406.59125 1492
761.74078 -406.59125 1492
764.30505 -406.59125 1492
765.84137 -406.0462 1490
768.40222 -406.0462 1490
770.96307 -406.0462 1490
772.48566 -405.50119 1488
774.00134 -404.95615 1486
776.55536 -404.95615 1486
777.53638 -404.13861 1483
779.0332 -403.59357 1481
-678.10516 -409.44284 1512
-675.50647 -409.44284 1512
-672.01776 -408.90125 1510
-670.30914 -409.44284 1512
-667.71051 -409.44284 1512
-664.23206 -408.90125 1510
-661.63684 -408.90125 1510
-659.04163 -408.90125 1510
-656.44635 -408.90125 1510
-652.98505 -408.35968 1508
-650.39331 -408.35968 1508
-646.51282 -407.54727 1505
-643.92615 -407.54727 1505
-641.33954 -407.54727 1505
-640.02612 -408.35968 1508
-637.43433 -408.35968 1508
-634.84253 -408.35968 1508
-633.08929 -408.90125 1510
-630.49408 -408.90125 1510
-628.73047 -409.44284 1512
-626.13177 -409.44284 1512
-623.53314 -409.44284 1512
-620.93445 -409.44284 1512
-617.51788 -408.90125 1510
-614.10815 -408.35968 1508
-611.51636 -408.35968 1508
-608.92456 -408.35968 1508
-606.33276 -408.35968 1508
-604.54175 -408.90125 1510
-602.74377 -409.44284 1512
-600.9389 -409.98444 1514
-597.54645 -409.44284 1512
-594.94775 -409.44284 1512
-592.34912 -409.44284 1512
-589.75043 -409.44284 1512
