# .PCD v0.7 - Point Cloud Data file format
VERSION 0.7
FIELDS x y z
SIZE 4 4 4
TYPE F F F
COUNT 1 1 1
WIDTH 1827
HEIGHT 1
VIEWPOINT 0 0 0 1 0 0 0
POINTS 1827
DATA ascii
306.16388 -674.39313 2070
310.4697 -676.02216 2075
314.64136 -677.32532 2079
317.60229 -676.02216 2075
321.16858 -676.02216 2075
324.73486 -676.02216 2075
328.30118 -676.02216 2075
331.06778 -674.39313 2070
333.97885 -673.09003 2066
337.52969 -673.09003 2066
341.74088 -674.39313 2070
345.29858 -674.39313 2070
348.85629 -674.39313 2070
352.414 -674.39313 2070
355.97168 -674.39313 2070
359.52939 -674.39313 2070
363.0871 -674.39313 2070
366.64481 -674.39313 2070
369.48712 -673.09003 2066
373.03793 -673.09003 2066
376.58878 -673.09003 2066
380.13959 -673.09003 2066
383.69043 -673.09003 2066
387.991 -674.39313 2070
391.54871 -674.39313 2070
396.06076 -676.02216 2075
399.62704 -676.02216 2075
403.19336 -676.02216 2075
406.75964 -676.02216 2075
410.32593 -676.02216 2075
412.8949 -674.39313 2070
415.64786 -673.09003 2066
419.19867 -673.09003 2066
421.93103 -671.7868 2062
424.6496 -670.48364 2058
428.18668 -670.48364 2058
431.72375 -670.48364 2058
435.26083 -670.48364 2058
438.79791 -670.48364 2058
443.19473 -671.7868 2062
446.73868 -671.7868 2062
450.28262 -671.7868 2062
452.9462 -670.48364 2058
457.37051 -671.7868 2062
460.02036 -670.48364 2058
464.4584 -671.7868 2062
468.00235 -671.7868 2062
471.54633 -671.7868 2062
475.09027 -671.7868 2062
478.63422 -671.7868 2062
483.11356 -673.09003 2066
486.6644 -673.09003 2066
489.26608 -671.7868 2062
492.81003 -671.7868 2062
496.35397 -671.7868 2062
499.89792 -671.7868 2062
503.44186 -671.7868 2062
506.00235 -670.48364 2058
509.53943 -670.48364 2058
512.07928 -669.18048 2054
515.6095 -669.18048 2054
519.13971 -669.18048 2054
522.66992 -669.18048 2054
526.20007 -669.18048 2054
529.73029 -669.18048 2054
533.2605 -669.18048 2054
537.83606 -670.48364 2058
541.37311 -670.48364 2058
544.91022 -670.48364 2058
548.44727 -670.48364 2058
551.98438 -670.48364 2058
555.52142 -670.48364 2058
559.05847 -670.48364 2058
562.59558 -670.48364 2058
566.13263 -670.48364 2058
568.5625 -669.18048 2054
572.09271 -669.18048 2054
575.62292 -669.18048 2054
579.15314 -669.18048 2054
582.68335 -669.18048 2054
587.3551 -670.48364 2058
590.89221 -670.48364 2058
593.27393 -669.18048 2054
596.80414 -669.18048 2054
599.16522 -667.87732 2050
602.68854 -667.87732 2050
607.39471 -669.18048 2054
610.92493 -669.18048 2054
614.45514 -669.18048 2054
617.98535 -669.18048 2054
621.51556 -669.18048 2054
626.26294 -670.48364 2058
629.80005 -670.48364 2058
633.3371 -670.48364 2058
636.87421 -670.48364 2058
637.92181 -667.87732 2050
641.44513 -667.87732 2050
646.22693 -669.18048 2054
648.49182 -667.87732 2050
652.01514 -667.87732 2050
655.53845 -667.87732 2050
659.06177 -667.87732 2050
661.29224 -666.5741 2046
667.40814 -669.18048 2054
670.93835 -669.18048 2054
674.46857 -669.18048 2054
677.99878 -669.18048 2054
680.20178 -667.87732 2050
683.7251 -667.87732 2050
687.24841 -667.87732 2050
690.77173 -667.87732 2050
694.29504 -667.87732 2050
696.45673 -666.5741 2046
699.97321 -666.5741 2046
703.48962 -666.5741 2046
707.0061 -666.5741 2046
710.52258 -666.5741 2046
714.039 -666.5741 2046
717.55548 -666.5741 2046
721.0719 -666.5741 2046
724.58838 -666.5741 2046
729.52832 -667.87732 2050
733.05164 -667.87732 2050
736.57495 -667.87732 2050
740.09833 -667.87732 2050
743.62164 -667.87732 2050
745.68707 -666.5741 2046
749.20355 -666.5741 2046
752.71997 -666.5741 2046
756.23645 -666.5741 2046
759.75287 -666.5741 2046
764.7616 -667.87732 2050
768.28491 -667.87732 2050
771.80823 -667.87732 2050
776.84442 -669.18048 2054
780.37463 -669.18048 2054
783.90479 -669.18048 2054
785.90155 -667.87732 2050
790.96521 -669.18048 2054
792.94818 -667.87732 2050
796.47156 -667.87732 2050
798.43384 -666.5741 2046
803.51819 -667.87732 2050
807.0415 -667.87732 2050
810.56482 -667.87732 2050
814.0882 -667.87732 2050
817.61151 -667.87732 2050
819.53259 -666.5741 2046
824.65814 -667.87732 2050
828.18146 -667.87732 2050
831.70477 -667.87732 2050
831.56122 -664.94513 2041
835.06909 -664.94513 2041
838.57697 -664.94513 2041
842.08484 -664.94513 2041
849.32141 -667.87732 2050
852.84479 -667.87732 2050
856.3681 -667.87732 2050
859.89142 -667.87732 2050
863.41473 -667.87732 2050
868.62964 -669.18048 2054
873.85828 -670.48364 2058
877.39539 -670.48364 2058
879.22028 -669.18048 2054
881.03137 -667.87732 2050
884.55469 -667.87732 2050
888.078 -667.87732 2050
891.60138 -667.87732 2050
893.37805 -666.5741 2046
894.7027 -664.94513 2041
898.21057 -664.94513 2041
901.71844 -664.94513 2041
907.44385 -666.5741 2046
912.74133 -667.87732 2050
916.26465 -667.87732 2050
919.78796 -667.87732 2050
923.31128 -667.87732 2050
922.76562 -664.94513 2041
928.5426 -666.5741 2046
933.88129 -667.87732 2050
937.4046 -667.87732 2050
939.09192 -666.5741 2046
940.30493 -664.94513 2041
943.81274 -664.94513 2041
947.32062 -664.94513 2041
950.82849 -664.94513 2041
954.33636 -664.94513 2041
955.96698 -663.64197 2037
959.46796 -663.64197 2037
961.07794 -662.33881 2033
964.57202 -662.33881 2033
968.06616 -662.33881 2033
971.56024 -662.33881 2033
975.05438 -662.33881 2033
978.54846 -662.33881 2033
982.0426 -662.33881 2033
985.53668 -662.33881 2033
987.0849 -661.03558 2029
988.61926 -659.73248 2025
992.09961 -659.73248 2025
995.58002 -659.73248 2025
999.06036 -659.73248 2025
1002.5407 -659.73248 2025
1004.0339 -658.42926 2021
1009.5014 -659.73248 2025
1014.9828 -661.03558 2029
1020.4778 -662.33881 2033
1023.9719 -662.33881 2033
1029.4875 -663.64197 2037
1035.0171 -664.94513 2041
1036.4896 -663.64197 2037
1042.0328 -664.94513 2041
1045.5406 -664.94513 2041
1049.0485 -664.94513 2041
1052.5564 -664.94513 2041
1051.9248 -662.33881 2033
1053.3424 -661.03558 2029
1056.8296 -661.03558 2029
1062.4071 -662.33881 2033
1065.9012 -662.33881 2033
1071.4994 -663.64197 2037
-953.47321 -688.9837 2126
-949.81927 -688.9837 2126
-944.38519 -687.68738 2122
-936.74817 -684.77069 2113
-931.35016 -683.47443 2109
-927.72546 -683.47443 2109
-924.10071 -683.47443 2109
-920.47601 -683.47443 2109
-916.85126 -683.47443 2109
-913.2265 -683.47443 2109
-911.32697 -684.77069 2113
-907.69531 -684.77069 2113
-904.06372 -684.77069 2113
-900.43213 -684.77069 2113
-895.10284 -683.47443 2109
-891.47809 -683.47443 2109
-886.16949 -682.1781 2105
-884.22864 -683.47443 2109
-878.93378 -682.1781 2105
-873.23676 -680.55774 2100
-871.69806 -682.1781 2105
-869.72974 -683.47443 2109
-867.74768 -684.77069 2113
-864.11609 -684.77069 2113
-860.4845 -684.77069 2113
-856.85284 -684.77069 2113
-853.22125 -684.77069 2113
-851.60004 -686.39111 2118
-847.95984 -686.39111 2118
-844.31964 -686.39111 2118
-838.69482 -684.77069 2113
-835.06323 -684.77069 2113
-829.85767 -683.47443 2109
-826.23297 -683.47443 2109
-822.60822 -683.47443 2109
-818.98352 -683.47443 2109
-815.35876 -683.47443 2109
-810.19452 -682.1781 2105
-808.10931 -683.47443 2109
-802.9588 -682.1781 2105
-800.85986 -683.47443 2109
-797.23511 -683.47443 2109
-795.1156 -684.77069 2113
-791.48401 -684.77069 2113
-789.71667 -686.39111 2118
-787.56104 -687.68738 2122
-782.43628 -686.39111 2118
-778.79608 -686.39111 2118
-775.15588 -686.39111 2118
-771.51569 -686.39111 2118
-767.87549 -686.39111 2118
-764.23529 -686.39111 2118
-760.59509 -686.39111 2118
-755.16797 -684.77069 2113
-750.11365 -683.47443 2109
-746.48889 -683.47443 2109
-742.8642 -683.47443 2109
-739.23944 -683.47443 2109
-735.61469 -683.47443 2109
-731.98999 -683.47443 2109
-728.36523 -683.47443 2109
-724.74054 -683.47443 2109
-719.74817 -682.1781 2105
-716.13031 -682.1781 2105
-713.86633 -683.47443 2109
-710.24158 -683.47443 2109
-706.61688 -683.47443 2109
-704.3255 -684.77069 2113
-702.35193 -686.39111 2118
-698.71173 -686.39111 2118
-696.38422 -687.68738 2122
-691.43134 -686.39111 2118
-687.79114 -686.39111 2118
-684.15094 -686.39111 2118
-680.51074 -686.39111 2118
-676.87054 -686.39111 2118
-673.23035 -686.39111 2118
-669.59015 -686.39111 2118
-667.20764 -687.68738 2122
-664.8114 -688.9837 2126
-661.15747 -688.9837 2126
-657.50354 -688.9837 2126
-653.84955 -688.9837 2126
-650.19562 -688.9837 2126
-646.54169 -688.9837 2126
-642.88776 -688.9837 2126
-639.23376 -688.9837 2126
-634.38403 -687.68738 2122
-630.73694 -687.68738 2122
-627.08984 -687.68738 2122
-623.44281 -687.68738 2122
-618.62738 -686.39111 2118
-614.98718 -686.39111 2118
-609.90375 -684.77069 2113
-607.70679 -686.39111 2118
-602.64056 -684.77069 2113
-599.00897 -684.77069 2113
-595.37732 -684.77069 2113
-591.74573 -684.77069 2113
-588.11414 -684.77069 2113
-584.48254 -684.77069 2113
-580.85089 -684.77069 2113
-577.2193 -684.77069 2113
-573.58771 -684.77069 2113
-569.95612 -684.77069 2113
-567.66461 -686.39111 2118
-564.02441 -686.39111 2118
-559.06128 -684.77069 2113
-554.37823 -683.47443 2109
-550.75348 -683.47443 2109
-548.1665 -684.77069 2113
-544.53485 -684.77069 2113
-540.90326 -684.77069 2113
-537.27167 -684.77069 2113
-533.64008 -684.77069 2113
-530.00848 -684.77069 2113
-526.37683 -684.77069 2113
-522.74524 -684.77069 2113
-519.11365 -684.77069 2113
-515.48206 -684.77069 2113
-511.85043 -684.77069 2113
-508.21884 -684.77069 2113
-504.58722 -684.77069 2113
-502.14102 -686.39111 2118
-498.50082 -686.39111 2118
-494.86063 -686.39111 2118
-490.06079 -684.77069 2113
-486.4292 -684.77069 2113
-482.79761 -684.77069 2113
-479.16599 -684.77069 2113
-474.63416 -683.47443 2109
-471.00943 -683.47443 2109
-467.3847 -683.47443 2109
-463.75998 -683.47443 2109
-459.26257 -682.1781 2105
-456.51053 -683.47443 2109
-452.02686 -682.1781 2105
-447.34387 -680.55774 2100
-443.73462 -680.55774 2100
-440.12537 -680.55774 2100
-436.51608 -680.55774 2100
-432.90683 -680.55774 2100
-429.29758 -680.55774 2100
-425.68832 -680.55774 2100
-422.07904 -680.55774 2100
-418.46979 -680.55774 2100
-414.86053 -680.55774 2100
-411.25125 -680.55774 2100
-407.642 -680.55774 2100
-404.03275 -680.55774 2100
-400.42349 -680.55774 2100
-396.81421 -680.55774 2100
-393.20496 -680.55774 2100
-389.5957 -680.55774 2100
-385.98642 -680.55774 2100
-382.37717 -680.55774 2100
-378.76791 -680.55774 2100
-374.44406 -679.26141 2096
-370.84167 -679.26141 2096
-367.23929 -679.26141 2096
-363.6369 -679.26141 2096
-360.03452 -679.26141 2096
-356.43213 -679.26141 2096
-352.1564 -677.96515 2092
-349.22736 -679.26141 2096
-346.28455 -680.55774 2100
-342.67529 -680.55774 2100
-339.87335 -682.1781 2105
-336.25549 -682.1781 2105
-332.63763 -682.1781 2105
-329.01978 -682.1781 2105
-325.40192 -682.1781 2105
-321.78406 -682.1781 2105
-318.1662 -682.1781 2105
-314.54834 -682.1781 2105
-310.19196 -680.55774 2100
-306.58267 -680.55774 2100
-302.97342 -680.55774 2100
-299.36417 -680.55774 2100
-295.75488 -680.55774 2100
-292.14563 -680.55774 2100
-288.53638 -680.55774 2100
-284.92712 -680.55774 2100
-281.31784 -680.55774 2100
-277.70859 -680.55774 2100
-274.75195 -682.1781 2105
-270.49005 -680.55774 2100
-266.8808 -680.55774 2100
-263.27155 -680.55774 2100
-259.16769 -679.26141 2096
-255.56531 -679.26141 2096
-251.96292 -679.26141 2096
-248.36053 -679.26141 2096
-244.75815 -679.26141 2096
-241.15576 -679.26141 2096
-237.55338 -679.26141 2096
-233.95099 -679.26141 2096
-230.3486 -679.26141 2096
-226.74622 -679.26141 2096
-223.14383 -679.26141 2096
-219.12247 -677.96515 2092
-215.52696 -677.96515 2092
-210.61447 -673.75214 2079
-206.14502 -670.83545 2070
-200.62994 -664.354 2050
-195.85669 -660.14099 2037
-191.22253 -656.25208 2025
-187.00047 -653.65948 2017
-183.16989 -652.36316 2013
-179.35306 -651.06689 2009
-175.54997 -649.77057 2005
-172.44734 -651.06689 2009
-168.99448 -651.06689 2009
-165.54161 -651.06689 2009
-162.41148 -652.36316 2013
-158.95175 -652.36316 2013
-155.18303 -651.06689 2009
-151.73018 -651.06689 2009
-147.98209 -649.77057 2005
-144.82445 -651.06689 2009
-141.3716 -651.06689 2009
-137.91873 -651.06689 2009
-134.46587 -651.06689 2009
-131.01302 -651.06689 2009
-127.56015 -651.06689 2009
-124.35439 -652.36316 2013
-120.89466 -652.36316 2013
-117.20157 -651.06689 2009
-113.74871 -651.06689 2009
-110.29585 -651.06689 2009
-106.84299 -651.06689 2009
-103.59599 -652.36316 2013
-100.13625 -652.36316 2013
-96.676514 -652.36316 2013
-93.031548 -651.06689 2009
-89.757042 -652.36316 2013
-86.29731 -652.36316 2013
-82.672966 -651.06689 2009
-79.220108 -651.06689 2009
-75.76725 -651.06689 2009
-72.17041 -649.77057 2005
-68.724419 -649.77057 2005
-65.278435 -649.77057 2005
-61.832451 -649.77057 2005
-58.269985 -648.4743 2001
-54.830872 -648.4743 2001
-51.289028 -647.17798 1997
-47.856792 -647.17798 1997
-44.424557 -647.17798 1997
-40.992321 -647.17798 1997
-37.560085 -647.17798 1997
-34.12785 -647.17798 1997
-30.695614 -647.17798 1997
-27.263378 -647.17798 1997
-23.831142 -647.17798 1997
-20.439764 -648.4743 2001
-16.966671 -647.17798 1997
-13.534434 -647.17798 1997
-10.102199 -647.17798 1997
-6.6699629 -647.17798 1997
-3.2377272 -647.17798 1997
0.19450873 -647.17798 1997
3.6267447 -647.17798 1997
7.0589805 -647.17798 1997
10.491217 -647.17798 1997
13.951341 -648.4743 2001
17.390451 -648.4743 2001
20.829563 -648.4743 2001
24.268673 -648.4743 2001
27.707785 -648.4743 2001
31.146893 -648.4743 2001
34.465015 -646.20581 1994
37.892094 -646.20581 1994
41.319172 -646.20581 1994
44.746254 -646.20581 1994
48.173332 -646.20581 1994
51.600414 -646.20581 1994
54.917107 -644.90948 1990
58.454575 -646.20581 1994
61.881657 -646.20581 1994
65.308739 -646.20581 1994
68.735817 -646.20581 1994
72.271461 -647.17798 1997
75.703697 -647.17798 1997
79.135933 -647.17798 1997
82.568169 -647.17798 1997
86.000404 -647.17798 1997
89.298294 -646.20581 1994
92.725372 -646.20581 1994
96.152451 -646.20581 1994
99.379776 -644.90948 1990
103.00661 -646.20581 1994
106.43369 -646.20581 1994
109.64039 -644.90948 1990
113.28784 -646.20581 1994
116.71493 -646.20581 1994
120.32276 -647.17798 1997
123.755 -647.17798 1997
126.99616 -646.20581 1994
130.42325 -646.20581 1994
133.85033 -646.20581 1994
137.2774 -646.20581 1994
140.91618 -647.17798 1997
144.13156 -646.20581 1994
147.26263 -644.90948 1990
150.68285 -644.90948 1990
154.10304 -644.90948 1990
157.20662 -643.61316 1986
160.61995 -643.61316 1986
163.70291 -642.31683 1982
166.77211 -641.02051 1978
170.17169 -641.02051 1978
173.92227 -642.31683 1982
177.32872 -642.31683 1982
180.73518 -642.31683 1982
184.14163 -642.31683 1982
187.92659 -643.61316 1986
191.7253 -644.90948 1990
195.14551 -644.90948 1990
198.56572 -644.90948 1990
201.98592 -644.90948 1990
205.40613 -644.90948 1990
209.24608 -646.20581 1994
212.67316 -646.20581 1994
216.42537 -647.17798 1997
219.8576 -647.17798 1997
223.28984 -647.17798 1997
226.38148 -646.20581 1994
229.80856 -646.20581 1994
233.23564 -646.20581 1994
236.66272 -646.20581 1994
240.0898 -646.20581 1994
243.51688 -646.20581 1994
246.44859 -644.90948 1990
250.37103 -646.20581 1994
253.79811 -646.20581 1994
256.7092 -644.90948 1990
259.60654 -643.61316 1986
263.01987 -643.61316 1986
265.89658 -642.31683 1982
269.30304 -642.31683 1982
273.25986 -643.61316 1986
278.20563 -647.17798 1997
282.76608 -649.77057 2005
288.49606 -654.95575 2021
294.28104 -660.14099 2037
300.26721 -665.65027 2054
306.16388 -670.83545 2070
310.4697 -672.45587 2075
314.03598 -672.45587 2075
317.60229 -672.45587 2075
321.16858 -672.45587 2075
324.73486 -672.45587 2075
327.51007 -670.83545 2070
330.42804 -669.53918 2066
333.97885 -669.53918 2066
337.52969 -669.53918 2066
341.08051 -669.53918 2066
344.63132 -669.53918 2066
348.85629 -670.83545 2070
352.414 -670.83545 2070
355.97168 -670.83545 2070
359.52939 -670.83545 2070
362.38547 -669.53918 2066
365.93628 -669.53918 2066
369.48712 -669.53918 2066
373.03793 -669.53918 2066
376.58878 -669.53918 2066
380.13959 -669.53918 2066
383.69043 -669.53918 2066
387.24124 -669.53918 2066
391.54871 -670.83545 2070
395.10638 -670.83545 2070
398.66409 -670.83545 2070
403.19336 -672.45587 2075
405.77951 -670.83545 2070
409.33719 -670.83545 2070
412.8949 -670.83545 2070
415.64786 -669.53918 2066
418.38708 -668.24286 2062
421.93103 -668.24286 2062
424.6496 -666.94659 2058
428.18668 -666.94659 2058
431.72375 -666.94659 2058
434.41486 -665.65027 2054
438.79791 -666.94659 2058
443.19473 -668.24286 2062
445.87207 -666.94659 2058
449.40915 -666.94659 2058
452.9462 -666.94659 2058
456.48328 -666.94659 2058
460.02036 -666.94659 2058
463.55743 -666.94659 2058
467.09451 -666.94659 2058
470.63159 -666.94659 2058
474.16867 -666.94659 2058
477.70575 -666.94659 2058
481.24283 -666.94659 2058
484.77991 -666.94659 2058
488.31699 -666.94659 2058
491.85406 -666.94659 2058
495.39111 -666.94659 2058
499.89792 -668.24286 2062
502.46527 -666.94659 2058
506.00235 -666.94659 2058
509.53943 -666.94659 2058
512.07928 -665.65027 2054
515.6095 -665.65027 2054
519.13971 -665.65027 2054
522.66992 -665.65027 2054
526.20007 -665.65027 2054
529.73029 -665.65027 2054
532.22205 -664.354 2050
537.83606 -666.94659 2058
541.37311 -666.94659 2058
544.91022 -666.94659 2058
548.44727 -666.94659 2058
553.05719 -668.24286 2062
555.52142 -666.94659 2058
559.05847 -666.94659 2058
562.59558 -666.94659 2058
566.13263 -666.94659 2058
569.66974 -666.94659 2058
573.20679 -666.94659 2058
575.62292 -665.65027 2054
579.15314 -665.65027 2054
582.68335 -665.65027 2054
586.2135 -665.65027 2054
589.74371 -665.65027 2054
592.11859 -664.354 2050
595.64191 -664.354 2050
597.99609 -663.05768 2046
602.68854 -664.354 2050
606.21191 -664.354 2050
609.73523 -664.354 2050
613.25854 -664.354 2050
616.78186 -664.354 2050
620.30518 -664.354 2050
625.04572 -665.65027 2054
628.57593 -665.65027 2054
632.10614 -665.65027 2054
635.63635 -665.65027 2054
637.92181 -664.354 2050
640.19354 -663.05768 2046
644.96851 -664.354 2050
648.49182 -664.354 2050
650.74286 -663.05768 2046
654.25934 -663.05768 2046
657.77576 -663.05768 2046
661.29224 -663.05768 2046
666.10846 -664.354 2050
669.63177 -664.354 2050
671.84161 -663.05768 2046
675.35803 -663.05768 2046
678.87451 -663.05768 2046
682.39093 -663.05768 2046
687.24841 -664.354 2050
690.77173 -664.354 2050
692.94031 -663.05768 2046
694.75476 -661.43732 2041
698.26263 -661.43732 2041
703.48962 -663.05768 2046
707.0061 -663.05768 2046
710.52258 -663.05768 2046
714.039 -663.05768 2046
715.80188 -661.43732 2041
719.30975 -661.43732 2041
722.81763 -661.43732 2041
728.1048 -663.05768 2046
729.83331 -661.43732 2041
735.1377 -663.05768 2046
738.65417 -663.05768 2046
742.17065 -663.05768 2046
745.68707 -663.05768 2046
747.37262 -661.43732 2041
750.88049 -661.43732 2041
754.38837 -661.43732 2041
757.89624 -661.43732 2041
763.26935 -663.05768 2046
766.78577 -663.05768 2046
770.30225 -663.05768 2046
775.3316 -664.354 2050
778.85492 -664.354 2050
782.37823 -664.354 2050
785.90155 -664.354 2050
790.96521 -665.65027 2054
792.94818 -664.354 2050
796.47156 -664.354 2050
798.43384 -663.05768 2046
801.95032 -663.05768 2046
805.46674 -663.05768 2046
808.98322 -663.05768 2046
812.49969 -663.05768 2046
816.01611 -663.05768 2046
817.52979 -661.43732 2041
823.04901 -663.05768 2046
826.56549 -663.05768 2046
830.08191 -663.05768 2046
831.56122 -661.43732 2041
835.06909 -661.43732 2041
838.57697 -661.43732 2041
844.14771 -663.05768 2046
849.32141 -664.354 2050
852.84479 -664.354 2050
856.3681 -664.354 2050
859.89142 -664.354 2050
863.41473 -664.354 2050
868.62964 -665.65027 2054
872.15985 -665.65027 2054
873.98474 -664.354 2050
875.79578 -663.05768 2046
879.31226 -663.05768 2046
880.67126 -661.43732 2041
886.34515 -663.05768 2046
889.86163 -663.05768 2046
891.19482 -661.43732 2041
892.94922 -660.14099 2037
896.45026 -660.14099 2037
899.95123 -660.14099 2037
907.44385 -663.05768 2046
910.96033 -663.05768 2046
914.47675 -663.05768 2046
917.99323 -663.05768 2046
919.25775 -661.43732 2041
920.95709 -660.14099 2037
926.2735 -661.43732 2041
929.78131 -661.43732 2041
933.28918 -661.43732 2041
934.96106 -660.14099 2037
936.61914 -658.84473 2033
941.96301 -660.14099 2037
945.46399 -660.14099 2037
948.96497 -660.14099 2037
954.33636 -661.43732 2041
955.96698 -660.14099 2037
959.46796 -660.14099 2037
961.07794 -658.84473 2033
964.57202 -658.84473 2033
968.06616 -658.84473 2033
971.56024 -658.84473 2033
975.05438 -658.84473 2033
978.54846 -658.84473 2033
980.11041 -657.5484 2029
983.59766 -657.5484 2029
985.13892 -656.25208 2025
986.6665 -654.95575 2021
990.14001 -654.95575 2021
995.58002 -656.25208 2025
999.06036 -656.25208 2025
1002.5407 -656.25208 2025
1004.0339 -654.95575 2021
1009.5014 -656.25208 2025
1014.9828 -657.5484 2029
1020.4778 -658.84473 2033
1025.9866 -660.14099 2037
1029.4875 -660.14099 2037
1035.0171 -661.43732 2041
1034.4542 -658.84473 2033
1039.9906 -660.14099 2037
1043.4916 -660.14099 2037
1046.9926 -660.14099 2037
1050.4935 -660.14099 2037
1049.8551 -657.5484 2029
1053.3424 -657.5484 2029
1056.8296 -657.5484 2029
1060.3168 -657.5484 2029
1063.8041 -657.5484 2029
1069.3953 -658.84473 2033
-951.67932 -684.04028 2122
-949.81927 -685.32977 2126
-944.38519 -684.04028 2122
-936.74817 -681.1391 2113
-931.35016 -679.84967 2109
-927.72546 -679.84967 2109
-924.10071 -679.84967 2109
-920.47601 -679.84967 2109
-916.85126 -679.84967 2109
-913.2265 -679.84967 2109
-911.32697 -681.1391 2113
-905.97705 -679.84967 2109
-902.35236 -679.84967 2109
-900.43213 -681.1391 2113
-895.10284 -679.84967 2109
-891.47809 -679.84967 2109
-886.16949 -678.56024 2105
-884.22864 -679.84967 2109
-876.84601 -676.94849 2100
-873.23676 -676.94849 2100
-871.69806 -678.56024 2105
-868.0802 -678.56024 2105
-866.10498 -679.84967 2109
-860.84448 -678.56024 2105
-858.85553 -679.84967 2109
-855.23077 -679.84967 2109
-849.99091 -678.56024 2105
-849.58966 -681.1391 2113
-845.95807 -681.1391 2113
-842.32648 -681.1391 2113
-837.10718 -679.84967 2109
-833.48242 -679.84967 2109
-829.85767 -679.84967 2109
-826.23297 -679.84967 2109
-822.60822 -679.84967 2109
-817.43024 -678.56024 2105
-813.81238 -678.56024 2105
-810.19452 -678.56024 2105
-806.57666 -678.56024 2105
-802.9588 -678.56024 2105
-799.34094 -678.56024 2105
-797.23511 -679.84967 2109
-793.61041 -679.84967 2109
-789.98566 -679.84967 2109
-787.85236 -681.1391 2113
-786.07648 -682.75092 2118
-782.43628 -682.75092 2118
-778.79608 -682.75092 2118
-775.15588 -682.75092 2118
-771.51569 -682.75092 2118
-767.87549 -682.75092 2118
-764.23529 -682.75092 2118
-760.59509 -682.75092 2118
-755.16797 -681.1391 2113
-751.53632 -681.1391 2113
-747.90472 -681.1391 2113
-744.27313 -681.1391 2113
-740.64154 -681.1391 2113
-735.61469 -679.84967 2109
-731.98999 -679.84967 2109
-728.36523 -679.84967 2109
-723.36597 -678.56024 2105
-719.74817 -678.56024 2105
-716.13031 -678.56024 2105
-712.51245 -678.56024 2105
-708.89459 -678.56024 2105
-705.27673 -678.56024 2105
-702.99213 -679.84967 2109
-700.69385 -681.1391 2113
-697.06226 -681.1391 2113
-695.07153 -682.75092 2118
-691.43134 -682.75092 2118
-686.16748 -681.1391 2113
-682.53583 -681.1391 2113
-678.90424 -681.1391 2113
-675.27264 -681.1391 2113
-671.64105 -681.1391 2113
-669.59015 -682.75092 2118
-665.94995 -682.75092 2118
-663.56061 -684.04028 2122
-659.91351 -684.04028 2122
-656.26642 -684.04028 2122
-652.61938 -684.04028 2122
-647.74896 -682.75092 2118
-645.3252 -684.04028 2122
-641.67816 -684.04028 2122
-636.82837 -682.75092 2118
-633.18817 -682.75092 2118
-628.06177 -681.1391 2113
-624.43018 -681.1391 2113
-620.79858 -681.1391 2113
-617.16699 -681.1391 2113
-613.53534 -681.1391 2113
-609.90375 -681.1391 2113
-606.27216 -681.1391 2113
-602.64056 -681.1391 2113
-599.00897 -681.1391 2113
-595.37732 -681.1391 2113
-591.74573 -681.1391 2113
-588.11414 -681.1391 2113
-584.48254 -681.1391 2113
-580.85089 -681.1391 2113
-576.12659 -679.84967 2109
-572.50189 -679.84967 2109
-569.95612 -681.1391 2113
-566.32452 -681.1391 2113
-561.62769 -679.84967 2109
-558.00293 -679.84967 2109
-554.37823 -679.84967 2109
-550.75348 -679.84967 2109
-547.12878 -679.84967 2109
-544.53485 -681.1391 2113
-539.87933 -679.84967 2109
-536.25458 -679.84967 2109
-532.62982 -679.84967 2109
-529.00513 -679.84967 2109
-525.38037 -679.84967 2109
-521.75568 -679.84967 2109
-518.13092 -679.84967 2109
-514.50616 -679.84967 2109
-510.88147 -679.84967 2109
-508.21884 -681.1391 2113
-504.58722 -681.1391 2113
-502.14102 -682.75092 2118
-498.50082 -682.75092 2118
-494.86063 -682.75092 2118
-490.06079 -681.1391 2113
-486.4292 -681.1391 2113
-481.88364 -679.84967 2109
-478.25891 -679.84967 2109
-474.63416 -679.84967 2109
-471.00943 -679.84967 2109
-466.49829 -678.56024 2105
-462.88043 -678.56024 2105
-459.26257 -678.56024 2105
-455.64471 -678.56024 2105
-452.02686 -678.56024 2105
-447.34387 -676.94849 2100
-443.73462 -676.94849 2100
-440.12537 -676.94849 2100
-436.51608 -676.94849 2100
-432.90683 -676.94849 2100
-428.47989 -675.659 2096
-425.68832 -676.94849 2100
-421.27512 -675.659 2096
-418.46979 -676.94849 2100
-414.86053 -676.94849 2100
-411.25125 -676.94849 2100
-407.642 -676.94849 2100
-404.03275 -676.94849 2100
-400.42349 -676.94849 2100
-396.81421 -676.94849 2100
-392.45599 -675.659 2096
-388.85361 -675.659 2096
-385.98642 -676.94849 2100
-382.37717 -676.94849 2100
-378.76791 -676.94849 2100
-374.44406 -675.659 2096
-370.13397 -674.36963 2092
-366.53845 -674.36963 2092
-362.94293 -674.36963 2092
-359.34741 -674.36963 2092
-355.75192 -674.36963 2092
-352.1564 -674.36963 2092
-349.22736 -675.659 2096
-345.62497 -675.659 2096
-342.67529 -676.94849 2100
-339.06604 -676.94849 2100
-335.45679 -676.94849 2100
-331.8475 -676.94849 2100
-329.01978 -678.56024 2105
-325.40192 -678.56024 2105
-321.01971 -676.94849 2100
-317.41046 -676.94849 2100
-313.80121 -676.94849 2100
-310.19196 -676.94849 2100
-305.99872 -675.659 2096
-302.39633 -675.659 2096
-298.79395 -675.659 2096
-295.19156 -675.659 2096
-291.58917 -675.659 2096
-287.98679 -675.659 2096
-284.3844 -675.659 2096
-280.24615 -674.36963 2092
-277.17963 -675.659 2096
-273.57724 -675.659 2096
-269.97485 -675.659 2096
-266.37247 -675.659 2096
-262.77008 -675.659 2096
-258.6731 -674.36963 2092
-255.07758 -674.36963 2092
-251.48207 -674.36963 2092
-247.88655 -674.36963 2092
-244.29105 -674.36963 2092
-240.69553 -674.36963 2092
-237.10002 -674.36963 2092
-233.5045 -674.36963 2092
-230.3486 -675.659 2096
-226.74622 -675.659 2096
-223.14383 -675.659 2096
-219.12247 -674.36963 2092
-215.52696 -674.36963 2092
-211.0197 -671.46844 2083
-207.04131 -670.17896 2079
-201.41289 -663.40948 2058
-196.24129 -657.92944 2041
-191.60025 -654.06116 2029
-187.37132 -651.4823 2021
-183.53386 -650.19287 2017
-179.71016 -648.90344 2013
-175.90019 -647.61401 2009
-172.44734 -647.61401 2009
-169.33095 -648.90344 2013
-165.87122 -648.90344 2013
-162.41148 -648.90344 2013
-158.95175 -648.90344 2013
-155.492 -648.90344 2013
-151.73018 -647.61401 2009
-147.98209 -646.32458 2005
-144.82445 -647.61401 2009
-141.3716 -647.61401 2009
-137.91873 -647.61401 2009
-134.46587 -647.61401 2009
-130.75217 -646.32458 2005
-127.30618 -646.32458 2005
-124.10729 -647.61401 2009
-120.4142 -646.32458 2005
-116.96822 -646.32458 2005
-113.52223 -646.32458 2005
-110.07625 -646.32458 2005
-106.84299 -647.61401 2009
-103.39013 -647.61401 2009
-99.937271 -647.61401 2009
-96.484413 -647.61401 2009
-93.031548 -647.61401 2009
-89.57869 -647.61401 2009
-86.125832 -647.61401 2009
-82.672966 -647.61401 2009
-79.062378 -646.32458 2005
-75.616394 -646.32458 2005
-72.17041 -646.32458 2005
-68.724419 -646.32458 2005
-65.148201 -645.03522 2001
-61.709095 -645.03522 2001
-58.269985 -645.03522 2001
-54.830872 -645.03522 2001
-51.289028 -643.74573 1997
-47.856792 -643.74573 1997
-44.424557 -643.74573 1997
-40.992321 -643.74573 1997
-37.560085 -643.74573 1997
-34.12785 -643.74573 1997
-30.695614 -643.74573 1997
-27.263378 -643.74573 1997
-23.831142 -643.74573 1997
-20.398907 -643.74573 1997
-16.966671 -643.74573 1997
-13.534434 -643.74573 1997
-10.102199 -643.74573 1997
-6.6699629 -643.74573 1997
-3.2377272 -643.74573 1997
0.19450873 -643.74573 1997
3.6267447 -643.74573 1997
7.0589805 -643.74573 1997
10.491217 -643.74573 1997
13.951341 -645.03522 2001
17.390451 -645.03522 2001
20.829563 -645.03522 2001
24.268673 -645.03522 2001
27.707785 -645.03522 2001
31.146893 -645.03522 2001
34.516865 -643.74573 1997
37.892094 -642.77869 1994
41.319172 -642.77869 1994
44.746254 -642.77869 1994
48.173332 -642.77869 1994
51.600414 -642.77869 1994
54.917107 -641.48926 1990
58.337315 -641.48926 1990
61.881657 -642.77869 1994
65.308739 -642.77869 1994
68.735817 -642.77869 1994
72.271461 -643.74573 1997
75.703697 -643.74573 1997
79.135933 -643.74573 1997
82.568169 -643.74573 1997
86.000404 -643.74573 1997
89.298294 -642.77869 1994
92.725372 -642.77869 1994
96.152451 -642.77869 1994
99.379776 -641.48926 1990
102.79998 -641.48926 1990
106.43369 -642.77869 1994
109.64039 -641.48926 1990
113.06059 -641.48926 1990
116.71493 -642.77869 1994
120.32276 -643.74573 1997
123.56908 -642.77869 1994
126.99616 -642.77869 1994
130.42325 -642.77869 1994
133.85033 -642.77869 1994
137.2774 -642.77869 1994
140.70448 -642.77869 1994
143.84244 -641.48926 1990
146.96663 -640.19983 1986
150.37996 -640.19983 1986
153.48354 -638.9104 1982
156.89 -638.9104 1982
160.29645 -638.9104 1982
163.37253 -637.62097 1978
166.77211 -637.62097 1978
169.82756 -636.33154 1974
173.57127 -637.62097 1978
176.97086 -637.62097 1978
180.37042 -637.62097 1978
184.14163 -638.9104 1982
187.5481 -638.9104 1982
191.33992 -640.19983 1986
194.75325 -640.19983 1986
198.16658 -640.19983 1986
201.57991 -640.19983 1986
205.40613 -641.48926 1990
208.82632 -641.48926 1990
212.24654 -641.48926 1990
216.10023 -642.77869 1994
219.52731 -642.77869 1994
222.95439 -642.77869 1994
226.38148 -642.77869 1994
229.80856 -642.77869 1994
233.23564 -642.77869 1994
236.18799 -641.48926 1990
239.60818 -641.48926 1990
243.0284 -641.48926 1990
245.9532 -640.19983 1986
249.8688 -641.48926 1990
253.289 -641.48926 1990
256.19321 -640.19983 1986
259.08368 -638.9104 1982
262.49011 -638.9104 1982
265.89658 -638.9104 1982
269.30304 -638.9104 1982
273.25986 -640.19983 1986
277.78769 -642.77869 1994
282.76608 -646.32458 2005
289.06708 -652.77173 2025
294.28104 -656.64001 2037
299.68243 -660.83063 2050
306.16388 -667.27777 2070
309.72159 -667.27777 2070
314.03598 -668.88959 2075
317.60229 -668.88959 2075
321.16858 -668.88959 2075
324.73486 -668.88959 2075
327.51007 -667.27777 2070
330.42804 -665.98834 2066
333.33224 -664.69891 2062
336.87619 -664.69891 2062
341.08051 -665.98834 2066
344.63132 -665.98834 2066
348.85629 -667.27777 2070
352.414 -667.27777 2070
355.28381 -665.98834 2066
359.52939 -667.27777 2070
362.38547 -665.98834 2066
365.93628 -665.98834 2066
369.48712 -665.98834 2066
373.03793 -665.98834 2066
376.58878 -665.98834 2066
379.40363 -664.69891 2062
383.69043 -665.98834 2066
387.24124 -665.98834 2066
390.79208 -665.98834 2066
394.3429 -665.98834 2066
398.66409 -667.27777 2070
402.2218 -667.27777 2070
405.77951 -667.27777 2070
408.5462 -665.98834 2066
412.09702 -665.98834 2066
415.64786 -665.98834 2066
418.38708 -664.69891 2062
421.93103 -664.69891 2062
424.6496 -663.40948 2058
428.18668 -663.40948 2058
431.72375 -663.40948 2058
434.41486 -662.12006 2054
438.79791 -663.40948 2058
443.19473 -664.69891 2062
445.87207 -663.40948 2058
449.40915 -663.40948 2058
452.9462 -663.40948 2058
456.48328 -663.40948 2058
459.12625 -662.12006 2054
462.65646 -662.12006 2054
466.18668 -662.12006 2054
469.71686 -662.12006 2054
474.16867 -663.40948 2058
477.70575 -663.40948 2058
481.24283 -663.40948 2058
484.77991 -663.40948 2058
488.31699 -663.40948 2058
491.85406 -663.40948 2058
495.39111 -663.40948 2058
498.92819 -663.40948 2058
502.46527 -663.40948 2058
506.00235 -663.40948 2058
509.53943 -663.40948 2058
512.07928 -662.12006 2054
516.61359 -663.40948 2058
519.13971 -662.12006 2054
522.66992 -662.12006 2054
526.20007 -662.12006 2054
529.73029 -662.12006 2054
532.22205 -660.83063 2050
536.79071 -662.12006 2054
541.37311 -663.40948 2058
544.91022 -663.40948 2058
548.44727 -663.40948 2058
553.05719 -664.69891 2062
555.52142 -663.40948 2058
559.05847 -663.40948 2058
562.59558 -663.40948 2058
566.13263 -663.40948 2058
568.5625 -662.12006 2054
572.09271 -662.12006 2054
574.50195 -660.83063 2050
578.02527 -660.83063 2050
581.54858 -660.83063 2050
585.07196 -660.83063 2050
588.59528 -660.83063 2050
590.9632 -659.5412 2046
594.47961 -659.5412 2046
597.99609 -659.5412 2046
601.51257 -659.5412 2046
606.21191 -660.83063 2050
610.92493 -662.12006 2054
613.25854 -660.83063 2050
615.57837 -659.5412 2046
619.09479 -659.5412 2046
625.04572 -662.12006 2054
628.57593 -662.12006 2054
632.10614 -662.12006 2054
634.3985 -660.83063 2050
637.92181 -660.83063 2050
640.19354 -659.5412 2046
643.70996 -659.5412 2046
647.22644 -659.5412 2046
649.15259 -657.92944 2041
652.66046 -657.92944 2041
656.16833 -657.92944 2041
659.67615 -657.92944 2041
664.80865 -659.5412 2046
668.32513 -659.5412 2046
670.19977 -657.92944 2041
673.70758 -657.92944 2041
677.21545 -657.92944 2041
682.39093 -659.5412 2046
685.90741 -659.5412 2046
689.42383 -659.5412 2046
692.94031 -659.5412 2046
694.75476 -657.92944 2041
698.26263 -657.92944 2041
701.77045 -657.92944 2041
705.27832 -657.92944 2041
708.78619 -657.92944 2041
712.29407 -657.92944 2041
714.39905 -656.64001 2037
719.30975 -657.92944 2041
722.81763 -657.92944 2041
726.3255 -657.92944 2041
729.83331 -657.92944 2041
733.34119 -657.92944 2041
738.65417 -659.5412 2046
742.17065 -659.5412 2046
745.68707 -659.5412 2046
747.37262 -657.92944 2041
750.88049 -657.92944 2041
754.38837 -657.92944 2041
757.89624 -657.92944 2041
763.26935 -659.5412 2046
766.78577 -659.5412 2046
770.30225 -659.5412 2046
775.3316 -660.83063 2050
778.85492 -660.83063 2050
783.90479 -662.12006 2054
785.90155 -660.83063 2050
789.42487 -660.83063 2050
791.40094 -659.5412 2046
794.91742 -659.5412 2046
798.43384 -659.5412 2046
801.95032 -659.5412 2046
803.49835 -657.92944 2041
807.00623 -657.92944 2041
810.5141 -657.92944 2041
814.02197 -657.92944 2041
817.52979 -657.92944 2041
823.04901 -659.5412 2046
826.56549 -659.5412 2046
830.08191 -659.5412 2046
833.59839 -659.5412 2046
837.11481 -659.5412 2046
842.27478 -660.83063 2050
845.7981 -660.83063 2050
850.97864 -662.12006 2054
854.50885 -662.12006 2054
858.03906 -662.12006 2054
859.89142 -660.83063 2050
863.41473 -660.83063 2050
866.93805 -660.83063 2050
870.46143 -660.83063 2050
872.27936 -659.5412 2046
873.65552 -657.92944 2041
877.16339 -657.92944 2041
880.67126 -657.92944 2041
884.17914 -657.92944 2041
887.68695 -657.92944 2041
889.44824 -656.64001 2037
892.94922 -656.64001 2037
896.45026 -656.64001 2037
901.71844 -657.92944 2041
907.44385 -659.5412 2046
910.96033 -659.5412 2046
914.47675 -659.5412 2046
915.74988 -657.92944 2041
919.25775 -657.92944 2041
919.14862 -655.35059 2033
926.2735 -657.92944 2041
929.78131 -657.92944 2041
931.46008 -656.64001 2037
933.12506 -655.35059 2033
934.77637 -654.06116 2029
940.11328 -655.35059 2033
943.60736 -655.35059 2033
947.1015 -655.35059 2033
952.46594 -656.64001 2037
954.08972 -655.35059 2033
957.5838 -655.35059 2033
959.18701 -654.06116 2029
964.57202 -655.35059 2033
966.1615 -654.06116 2029
967.73712 -652.77173 2025
971.21747 -652.77173 2025
974.69781 -652.77173 2025
978.17822 -652.77173 2025
979.71954 -651.4823 2021
981.24701 -650.19287 2017
984.71362 -650.19287 2017
988.18024 -650.19287 2017
993.61346 -651.4823 2021
999.06036 -652.77173 2025
1002.5407 -652.77173 2025
1004.0339 -651.4823 2021
1007.5074 -651.4823 2021
1014.9828 -654.06116 2029
1018.47 -654.06116 2029
1025.9866 -656.64001 2037
1029.4875 -656.64001 2037
1032.9886 -656.64001 2037
1034.4542 -655.35059 2033
1039.9906 -656.64001 2037
1043.4916 -656.64001 2037
1046.9926 -656.64001 2037
1050.4935 -656.64001 2037
1049.8551 -654.06116 2029
1051.2657 -652.77173 2025
1054.7461 -652.77173 2025
1060.3168 -654.06116 2029
1063.8041 -654.06116 2029
1069.3953 -655.35059 2033
-949.88544 -679.11072 2118
-946.24524 -679.11072 2118
-940.37976 -677.50751 2113
-934.97491 -676.22498 2109
-929.58368 -674.94238 2105
-925.96582 -674.94238 2105
-922.34796 -674.94238 2105
-918.7301 -674.94238 2105
-916.85126 -676.22498 2109
-914.95856 -677.50751 2113
-911.32697 -677.50751 2113
-905.97705 -676.22498 2109
-904.06372 -677.50751 2113
-900.43213 -677.50751 2113
-895.10284 -676.22498 2109
-891.47809 -676.22498 2109
-886.16949 -674.94238 2105
-882.55164 -674.94238 2105
-876.84601 -673.33923 2100
-873.23676 -673.33923 2100
-869.6275 -673.33923 2100
-866.01825 -673.33923 2100
-864.46234 -674.94238 2105
-860.84448 -674.94238 2105
-857.22662 -674.94238 2105
-853.60876 -674.94238 2105
-849.99091 -674.94238 2105
-847.98132 -676.22498 2109
-844.35663 -676.22498 2109
-840.73187 -676.22498 2109
-837.10718 -676.22498 2109
-833.48242 -676.22498 2109
-829.85767 -676.22498 2109
-824.66595 -674.94238 2105
-821.0481 -674.94238 2105
-817.43024 -674.94238 2105
-811.87933 -673.33923 2100
-808.27008 -673.33923 2100
-806.57666 -674.94238 2105
-801.05151 -673.33923 2100
-799.34094 -674.94238 2105
-797.23511 -676.22498 2109
-793.61041 -676.22498 2109
-789.98566 -676.22498 2109
-787.85236 -677.50751 2113
-786.07648 -679.11072 2118
-782.43628 -679.11072 2118
-778.79608 -679.11072 2118
-775.15588 -679.11072 2118
-771.51569 -679.11072 2118
-769.32568 -680.39325 2122
-765.67865 -680.39325 2122
-763.46802 -681.67578 2126
-756.9549 -679.11072 2118
-753.3147 -679.11072 2118
-747.90472 -677.50751 2113
-744.27313 -677.50751 2113
-740.64154 -677.50751 2113
-735.61469 -676.22498 2109
-731.98999 -676.22498 2109
-726.98383 -674.94238 2105
-723.36597 -674.94238 2105
-719.74817 -674.94238 2105
-716.13031 -674.94238 2105
-712.51245 -674.94238 2105
-708.89459 -674.94238 2105
-705.27673 -674.94238 2105
-702.99213 -676.22498 2109
-699.36743 -676.22498 2109
-697.06226 -677.50751 2113
-693.43066 -677.50751 2113
-689.79907 -677.50751 2113
-686.16748 -677.50751 2113
-682.53583 -677.50751 2113
-678.90424 -677.50751 2113
-675.27264 -677.50751 2113
-670.36957 -676.22498 2109
-668.00946 -677.50751 2113
-664.37781 -677.50751 2113
-660.74622 -677.50751 2113
-658.66956 -679.11072 2118
-655.02936 -679.11072 2118
-651.38916 -679.11072 2118
-646.21979 -677.50751 2113
-642.5882 -677.50751 2113
-638.9566 -677.50751 2113
-635.32501 -677.50751 2113
-630.49756 -676.22498 2109
-626.8728 -676.22498 2109
-623.24811 -676.22498 2109
-619.62335 -676.22498 2109
-615.99866 -676.22498 2109
-612.3739 -676.22498 2109
-608.74915 -676.22498 2109
-606.27216 -677.50751 2113
-602.64056 -677.50751 2113
-599.00897 -677.50751 2113
-595.37732 -677.50751 2113
-591.74573 -677.50751 2113
-588.11414 -677.50751 2113
-584.48254 -677.50751 2113
-579.75134 -676.22498 2109
-576.12659 -676.22498 2109
-571.41608 -674.94238 2105
-567.79822 -674.94238 2105
-564.18036 -674.94238 2105
-560.5625 -674.94238 2105
-556.94464 -674.94238 2105
-554.37823 -676.22498 2109
-550.75348 -676.22498 2109
-547.12878 -676.22498 2109
-543.50403 -676.22498 2109
-539.87933 -676.22498 2109
-536.25458 -676.22498 2109
-532.62982 -676.22498 2109
-528.00183 -674.94238 2105
-524.38397 -674.94238 2105
-520.76611 -674.94238 2105
-517.14825 -674.94238 2105
-513.5304 -674.94238 2105
-509.91254 -674.94238 2105
-506.29471 -674.94238 2105
-503.63202 -676.22498 2109
-500.95563 -677.50751 2113
-497.32401 -677.50751 2113
-493.69241 -677.50751 2113
-489.13309 -676.22498 2109
-485.50836 -676.22498 2109
-481.88364 -676.22498 2109
-478.25891 -676.22498 2109
-474.63416 -676.22498 2109
-471.00943 -676.22498 2109
-466.49829 -674.94238 2105
-462.88043 -674.94238 2105
-459.26257 -674.94238 2105
-455.64471 -674.94238 2105
-452.02686 -674.94238 2105
-447.34387 -673.33923 2100
-443.73462 -673.33923 2100
-439.28705 -672.05664 2096
-435.68466 -672.05664 2096
-432.08228 -672.05664 2096
-428.47989 -672.05664 2096
-424.8775 -672.05664 2096
-421.27512 -672.05664 2096
-417.67273 -672.05664 2096
-414.07034 -672.05664 2096
-410.46796 -672.05664 2096
-407.642 -673.33923 2100
-404.03275 -673.33923 2100
-399.66077 -672.05664 2096
-396.05838 -672.05664 2096
-392.45599 -672.05664 2096
-388.85361 -672.05664 2096
-385.25122 -672.05664 2096
-381.64883 -672.05664 2096
-378.04645 -672.05664 2096
-373.72946 -670.77411 2092
-370.13397 -670.77411 2092
-366.53845 -670.77411 2092
-362.94293 -670.77411 2092
-359.34741 -670.77411 2092
-355.75192 -670.77411 2092
-352.1564 -670.77411 2092
-348.56088 -670.77411 2092
-345.62497 -672.05664 2096
-342.67529 -673.33923 2100
-339.06604 -673.33923 2100
-335.45679 -673.33923 2100
-331.8475 -673.33923 2100
-328.23825 -673.33923 2100
-325.40192 -674.94238 2105
-321.01971 -673.33923 2100
-317.41046 -673.33923 2100
-313.80121 -673.33923 2100
-309.6011 -672.05664 2096
-305.99872 -672.05664 2096
-302.39633 -672.05664 2096
-298.79395 -672.05664 2096
-294.6282 -670.77411 2092
-291.03268 -670.77411 2092
-287.43719 -670.77411 2092
-283.84167 -670.77411 2092
-280.24615 -670.77411 2092
-276.65063 -670.77411 2092
-273.57724 -672.05664 2096
-269.97485 -672.05664 2096
-265.86411 -670.77411 2092
-262.26862 -670.77411 2092
-258.6731 -670.77411 2092
-255.07758 -670.77411 2092
-251.48207 -670.77411 2092
-247.88655 -670.77411 2092
-244.29105 -670.77411 2092
-240.69553 -670.77411 2092
-237.10002 -670.77411 2092
-233.5045 -670.77411 2092
-230.3486 -672.05664 2096
-226.74622 -672.05664 2096
-223.14383 -672.05664 2096
-219.12247 -670.77411 2092
-215.52696 -670.77411 2092
-211.0197 -667.88837 2083
-207.04131 -666.60577 2079
-201.80437 -661.15497 2062
-196.72203 -656.02472 2046
-191.60025 -650.57391 2029
-187.37132 -648.00879 2021
-183.53386 -646.72626 2017
-179.71016 -645.44373 2013
-175.90019 -644.16119 2009
-172.44734 -644.16119 2009
-169.33095 -645.44373 2013
-165.87122 -645.44373 2013
-162.41148 -645.44373 2013
-158.63589 -644.16119 2009
-155.18303 -644.16119 2009
-151.73018 -644.16119 2009
-147.98209 -642.8786 2005
-144.5361 -642.8786 2005
-141.09012 -642.8786 2005
-137.64413 -642.8786 2005
-133.93042 -641.59607 2001
-130.4913 -641.59607 2001
-127.05219 -641.59607 2001
-123.61308 -641.59607 2001
-120.4142 -642.8786 2005
-116.73486 -641.59607 2001
-113.29575 -641.59607 2001
-110.07625 -642.8786 2005
-106.63026 -642.8786 2005
-103.18427 -642.8786 2005
-99.937271 -644.16119 2009
-96.484413 -644.16119 2009
-93.031548 -644.16119 2009
-89.57869 -644.16119 2009
-86.125832 -644.16119 2009
-82.672966 -644.16119 2009
-79.062378 -642.8786 2005
-75.616394 -642.8786 2005
-72.17041 -642.8786 2005
-68.587318 -641.59607 2001
-65.148201 -641.59607 2001
-61.709095 -641.59607 2001
-58.269985 -641.59607 2001
-54.830872 -641.59607 2001
-51.289028 -640.31348 1997
-47.856792 -640.31348 1997
-44.424557 -640.31348 1997
-40.992321 -640.31348 1997
-37.560085 -640.31348 1997
-34.12785 -640.31348 1997
-30.695614 -640.31348 1997
-27.263378 -640.31348 1997
-23.831142 -640.31348 1997
-20.398907 -640.31348 1997
-16.966671 -640.31348 1997
-13.534434 -640.31348 1997
-10.102199 -640.31348 1997
-6.6699629 -640.31348 1997
-3.2377272 -640.31348 1997
0.19450873 -640.31348 1997
3.6267447 -640.31348 1997
7.0589805 -640.31348 1997
10.491217 -640.31348 1997
13.923452 -640.31348 1997
17.355688 -640.31348 1997
20.829563 -641.59607 2001
24.268673 -641.59607 2001
27.707785 -641.59607 2001
31.084631 -640.31348 1997
34.516865 -640.31348 1997
37.949104 -640.31348 1997
41.319172 -639.35162 1994
44.746254 -639.35162 1994
48.173332 -639.35162 1994
51.600414 -639.35162 1994
55.027493 -639.35162 1994
58.454575 -639.35162 1994
61.881657 -639.35162 1994
65.308739 -639.35162 1994
68.735817 -639.35162 1994
72.271461 -640.31348 1997
75.703697 -640.31348 1997
79.135933 -640.31348 1997
82.568169 -640.31348 1997
86.000404 -640.31348 1997
89.298294 -639.35162 1994
92.725372 -639.35162 1994
96.152451 -639.35162 1994
99.379776 -638.06903 1990
102.79998 -638.06903 1990
106.43369 -639.35162 1994
109.64039 -638.06903 1990
113.06059 -638.06903 1990
116.71493 -639.35162 1994
120.32276 -640.31348 1997
123.56908 -639.35162 1994
126.99616 -639.35162 1994
130.42325 -639.35162 1994
133.85033 -639.35162 1994
137.2774 -639.35162 1994
140.42223 -638.06903 1990
143.5533 -636.7865 1986
146.96663 -636.7865 1986
150.07709 -635.50397 1982
153.48354 -635.50397 1982
156.57336 -634.22137 1978
159.97295 -634.22137 1978
163.04214 -632.93884 1974
166.43484 -632.93884 1974
169.82756 -632.93884 1974
173.22026 -632.93884 1974
176.61298 -632.93884 1974
180.37042 -634.22137 1978
183.77 -634.22137 1978
187.16959 -634.22137 1978
190.95454 -635.50397 1982
194.36101 -635.50397 1982
198.16658 -636.7865 1986
201.57991 -636.7865 1986
204.99324 -636.7865 1986
208.82632 -638.06903 1990
212.24654 -638.06903 1990
216.10023 -639.35162 1994
219.52731 -639.35162 1994
222.95439 -639.35162 1994
226.38148 -639.35162 1994
229.80856 -639.35162 1994
233.23564 -639.35162 1994
236.66272 -639.35162 1994
239.60818 -638.06903 1990
243.0284 -638.06903 1990
245.9532 -636.7865 1986
249.8688 -638.06903 1990
253.289 -638.06903 1990
256.19321 -636.7865 1986
259.08368 -635.50397 1982
262.49011 -635.50397 1982
265.35995 -634.22137 1978
268.75952 -634.22137 1978
272.7095 -635.50397 1982
277.78769 -639.35162 1994
282.202 -641.59607 2001
288.49606 -648.00879 2021
293.12531 -650.57391 2029
299.68243 -657.30731 2050
306.16388 -663.72003 2070
309.72159 -663.72003 2070
314.03598 -665.32324 2075
317.60229 -665.32324 2075
321.16858 -665.32324 2075
323.95239 -663.72003 2070
326.8772 -662.4375 2066
329.7883 -661.15497 2062
333.33224 -661.15497 2062
336.22269 -659.87244 2058
340.42017 -661.15497 2062
343.96411 -661.15497 2062
347.50806 -661.15497 2062
351.73297 -662.4375 2066
354.59595 -661.15497 2062
358.83463 -662.4375 2066
361.68387 -661.15497 2062
365.93628 -662.4375 2066
369.48712 -662.4375 2066
372.3157 -661.15497 2062
375.85965 -661.15497 2062
379.40363 -661.15497 2062
383.69043 -662.4375 2066
387.24124 -662.4375 2066
390.79208 -662.4375 2066
394.3429 -662.4375 2066
398.66409 -663.72003 2070
402.2218 -663.72003 2070
405.77951 -663.72003 2070
409.33719 -663.72003 2070
412.09702 -662.4375 2066
415.64786 -662.4375 2066
418.38708 -661.15497 2062
421.93103 -661.15497 2062
424.6496 -659.87244 2058
428.18668 -659.87244 2058
431.72375 -659.87244 2058
434.41486 -658.58984 2054
438.79791 -659.87244 2058
443.19473 -661.15497 2062
445.87207 -659.87244 2058
448.53568 -658.58984 2054
452.06586 -658.58984 2054
455.59607 -658.58984 2054
459.12625 -658.58984 2054
462.65646 -658.58984 2054
465.27881 -657.30731 2050
469.71686 -658.58984 2054
473.24707 -658.58984 2054
476.77728 -658.58984 2054
481.24283 -659.87244 2058
484.77991 -659.87244 2058
488.31699 -659.87244 2058
491.85406 -659.87244 2058
495.39111 -659.87244 2058
498.92819 -659.87244 2058
501.48868 -658.58984 2054
505.01889 -658.58984 2054
509.53943 -659.87244 2058
512.07928 -658.58984 2054
515.6095 -658.58984 2054
518.12872 -657.30731 2050
521.65204 -657.30731 2050
525.17535 -657.30731 2050
528.69873 -657.30731 2050
532.22205 -657.30731 2050
535.74536 -657.30731 2050
540.32092 -658.58984 2054
543.85107 -658.58984 2054
548.44727 -659.87244 2058
551.98438 -659.87244 2058
555.52142 -659.87244 2058
559.05847 -659.87244 2058
562.59558 -659.87244 2058
565.03229 -658.58984 2054
568.5625 -658.58984 2054
570.97864 -657.30731 2050
573.38092 -656.02472 2046
576.8974 -656.02472 2046
580.41382 -656.02472 2046
583.9303 -656.02472 2046
588.59528 -657.30731 2050
590.9632 -656.02472 2046
594.47961 -656.02472 2046
597.99609 -656.02472 2046
601.51257 -656.02472 2046
605.02899 -656.02472 2046
609.73523 -657.30731 2050
613.25854 -657.30731 2050
615.57837 -656.02472 2046
619.09479 -656.02472 2046
623.82855 -657.30731 2050
627.35187 -657.30731 2050
632.10614 -658.58984 2054
634.3985 -657.30731 2050
636.67706 -656.02472 2046
638.62903 -654.42157 2041
642.1369 -654.42157 2041
645.64471 -654.42157 2041
649.15259 -654.42157 2041
652.66046 -654.42157 2041
656.16833 -654.42157 2041
659.67615 -654.42157 2041
663.18402 -654.42157 2041
666.69189 -654.42157 2041
670.19977 -654.42157 2041
673.70758 -654.42157 2041
677.21545 -654.42157 2041
682.39093 -656.02472 2046
685.90741 -656.02472 2046
689.42383 -656.02472 2046
692.94031 -656.02472 2046
694.75476 -654.42157 2041
698.26263 -654.42157 2041
701.77045 -654.42157 2041
705.27832 -654.42157 2041
707.39709 -653.13898 2037
710.89807 -653.13898 2037
712.99622 -651.85651 2033
717.90009 -653.13898 2037
721.40106 -653.13898 2037
724.90204 -653.13898 2037
728.40302 -653.13898 2037
